ply
format ascii 1.0
element vertex 812
property float x
property float y
property float z
end_header
-0.3740153908729553 -0.6396853923797607 3.2527174949645996
-0.12323126196861267 0.9232790470123291 3.733604907989502
0.002791517646983266 1.1360703706741333 3.6563825607299805
0.14902104437351227 -0.0014139029663056135 3.817070722579956
-0.5413835048675537 0.19873857498168945 3.6794300079345703
-0.02107802964746952 0.9646415114402771 3.717010498046875
-0.14294090867042542 0.2722771465778351 3.7548329830169678
-0.5439954400062561 0.2004721462726593 3.6782963275909424
0.19487576186656952 0.7451927661895752 3.7614636421203613
-0.45552724599838257 0.6379160284996033 3.7471630573272705
-0.45552724599838257 0.6379160284996033 3.7471630573272705
-0.4421722888946533 0.16891571879386902 3.691756248474121
0.07820852845907211 0.7853459715843201 3.754274606704712
-0.10063335299491882 0.9325841069221497 3.7303943634033203
-1.0272248983383179 0.30801817774772644 3.6444220542907715
-0.12156731635332108 0.4608941674232483 3.762331008911133
-0.11827462911605835 0.5173130035400391 3.762497663497925
-0.744184672832489 0.558076024055481 3.7346031665802
-0.11180414259433746 0.35524120926856995 3.7609267234802246
-0.10844836384057999 0.35499194264411926 3.7634072303771973
0.15901929140090942 0.32021066546440125 3.8122799396514893
-0.10826461762189865 0.35492753982543945 3.7628746032714844
-0.6676977276802063 0.6329447031021118 3.941309928894043
-0.10273804515600204 0.4421807527542114 3.764019012451172
0.15353499352931976 0.2889336347579956 3.8130314350128174
-0.11299125850200653 0.48838332295417786 4.0505805015563965
-0.4326972961425781 0.20593222975730896 3.6991939544677734
-0.04581260681152344 0.9548718333244324 3.7214059829711914
-0.43338876962661743 0.9053473472595215 3.7414236068725586
-0.6532884836196899 0.7896240949630737 3.74861478805542
-0.7162111401557922 0.15752378106117249 3.6266074180603027
-0.04870346561074257 0.9035467505455017 3.736541271209717
-0.43702977895736694 0.7313780188560486 3.747375965118408
-0.43702977895736694 0.7313780188560486 3.747375965118408
-0.9712353348731995 0.43993544578552246 3.6958277225494385
-0.9712353348731995 0.43993544578552246 3.6958277225494385
-0.03247426450252533 0.7925355434417725 3.7536542415618896
-0.4363369047641754 0.4393894076347351 3.734955072402954
-0.9740724563598633 0.42573288083076477 3.6897757053375244
-0.9662604331970215 0.4229467213153839 3.690422296524048
-0.9662604331970215 0.4229467213153839 3.690422296524048
-1.0643104314804077 0.44821643829345703 3.6888651847839355
-1.0293693542480469 0.2708962857723236 3.6259496212005615
-1.2313297986984253 0.36935070157051086 3.652574062347412
-0.9624467492103577 0.43306323885917664 3.69378924369812
-1.2882462739944458 0.3919263780117035 3.927751064300537
-0.9651879668235779 0.480674684047699 3.7032296657562256
-0.601116418838501 -0.8296893835067749 2.862048625946045
0.22338707745075226 -0.30364447832107544 1.4056106805801392
0.16441646218299866 0.013766897842288017 3.821061849594116
0.16441646218299866 0.013766897842288017 3.821061849594116
-0.7754871845245361 0.5652650594711304 3.730645179748535
-0.8774492144584656 0.3499666154384613 3.6753406524658203
0.17790551483631134 0.2417513132095337 3.8188509941101074
-1.1844806671142578 0.3548446595668793 3.6480185985565186
-0.4281248450279236 0.6026672124862671 3.7462332248687744
0.22607339918613434 0.6975728869438171 3.6769399642944336
-0.4202020764350891 0.22743304073810577 3.708470106124878
0.16789047420024872 0.1261846125125885 3.8231194019317627
0.16789047420024872 0.1261846125125885 3.8231194019317627
-1.2680065631866455 0.5928819179534912 3.7175726890563965
-0.8892698884010315 0.5097205638885498 3.7160375118255615
-0.29413115978240967 0.19606506824493408 3.7373576164245605
-0.7928433418273926 0.8204386234283447 3.7538888454437256
-0.4221618175506592 0.5989546775817871 3.746123790740967
0.18061792850494385 0.19288983941078186 3.8232486248016357
-1.1301918029785156 0.4480830430984497 3.68831205368042
-1.1278917789459229 0.42021074891090393 3.677762031555176
-0.028939398005604744 0.7975627183914185 3.7542855739593506
-1.132356882095337 0.4653458893299103 3.692735195159912
-0.29073187708854675 0.6280956864356995 3.749040126800537
-1.1278917789459229 0.42021074891090393 3.677762031555176
-1.1791751384735107 0.5835614800453186 3.724619150161743
0.1287553906440735 0.5352962017059326 3.9699594974517822
-1.057915210723877 0.3191365897655487 3.6459126472473145
-0.9020909070968628 0.45943382382392883 3.69797420501709
-1.1012341976165771 0.29269126057624817 3.6289308071136475
-0.4908542335033417 -0.8282768726348877 2.929190158843994
-0.9293333888053894 0.49491003155708313 3.7087159156799316
-0.03708621859550476 -0.2561255097389221 3.7150990962982178
-1.0805221796035767 0.24345539510250092 3.6124730110168457
-1.1293107271194458 0.4785335958003998 3.696939706802368
-0.8714397549629211 0.5030238032341003 3.710813283920288
0.10024480521678925 0.7108483910560608 3.7687859535217285
-1.0544649362564087 0.28504353761672974 3.6307053565979004
-0.9184747338294983 0.6275784373283386 3.735351085662842
-1.2628859281539917 0.5802271366119385 3.7158350944519043
-1.1770058870315552 0.5783618688583374 3.723498582839966
-0.3059777319431305 0.6256551742553711 3.74981427192688
-1.2628859281539917 0.5802271366119385 3.7158350944519043
-1.1413211822509766 0.46832743287086487 3.6934828758239746
-0.9040750861167908 0.31774187088012695 3.6604132652282715
-0.034124087542295456 0.25879961252212524 3.7739498615264893
0.0435430146753788 1.2818363904953003 3.5878970623016357
-0.007736984174698591 0.4818103015422821 3.776034116744995
-0.39814937114715576 0.7940477132797241 3.7476720809936523
-0.3115064799785614 0.6303596496582031 3.7488341331481934
-0.3115064799785614 0.6303596496582031 3.7488341331481934
-1.0786633491516113 0.264615923166275 3.6184496879577637
-0.31384819746017456 0.5692453980445862 3.747546434402466
0.0718887522816658 0.3353913724422455 3.7935662269592285
-0.8326424360275269 0.4491630494594574 3.5427193641662598
-1.0551776885986328 0.2512756884098053 3.6200599670410156
-1.065575122833252 0.23066924512386322 3.6032586097717285
-0.8120875954627991 0.8417454361915588 3.753805160522461
-0.842327356338501 0.5252160429954529 3.7171413898468018
-0.46930375695228577 0.5307735800743103 3.7959156036376953
-1.148858904838562 0.4688933491706848 3.6940650939941406
-1.0503227710723877 0.2294357270002365 3.605293035507202
0.48384231328964233 -0.28146517276763916 1.2098981142044067
-0.8072298765182495 0.5480851531028748 3.7284903526306152
-0.04906684532761574 -0.21007192134857178 3.7230277061462402
0.24253512918949127 0.30856776237487793 2.72731876373291
0.48384231328964233 -0.28146517276763916 1.2098981142044067
-0.006258732173591852 0.7164406180381775 3.763500690460205
-1.0563693046569824 0.3050774931907654 3.6399106979370117
-1.2584483623504639 0.5765753388404846 3.715672016143799
0.2188968062400818 0.7447434663772583 3.6522200107574463
-0.8694413304328918 0.34513574838638306 3.675976514816284
-1.2584483623504639 0.5765753388404846 3.715672016143799
0.12282144278287888 0.39621105790138245 3.9314918518066406
0.12945976853370667 0.7848705053329468 3.578963279724121
-0.0586627833545208 0.8157579302787781 3.7521414756774902
0.16254901885986328 0.1639157384634018 3.8203542232513428
-0.0015286034904420376 0.3933682143688202 3.7787842750549316
-0.44128310680389404 0.7308527231216431 3.7480249404907227
-1.0598666667938232 0.30118972063064575 3.6390159130096436
-1.4165258407592773 0.28450334072113037 3.592193841934204
0.19065383076667786 0.7393624186515808 3.7614636421203613
-0.8369525074958801 0.5230752229690552 3.723227024078369
-0.836735725402832 0.5230080485343933 3.7228219509124756
-0.719329833984375 0.5331347584724426 3.7359201908111572
0.03075285442173481 0.8573780059814453 3.740912675857544
0.08146688342094421 1.1338683366775513 3.642306327819824
0.1356799453496933 0.5909349322319031 3.786803960800171
0.5302957892417908 -0.2661905288696289 1.1564311981201172
-0.4608495235443115 0.12359630316495895 3.6771886348724365
-0.035475973039865494 0.899440586566925 3.7349023818969727
0.02315398119390011 1.284534215927124 3.592118263244629
0.02315398119390011 1.284534215927124 3.592118263244629
-1.0164024829864502 0.45736461877822876 3.692615032196045
0.03840508684515953 0.8829150199890137 3.735173463821411
-0.5447664260864258 0.23458074033260345 3.686060905456543
-0.7929787039756775 0.8065323829650879 3.7555294036865234
-0.3863844573497772 -0.7145993113517761 3.187910795211792
0.18924468755722046 0.7023193836212158 3.7701773643493652
-0.010058593936264515 0.23829922080039978 3.779766082763672
0.07771840691566467 0.5429824590682983 3.785001277923584
-0.010058593936264515 0.23829922080039978 3.779766082763672
0.13270844519138336 -1.126868724822998 3.0514252185821533
-0.1024220809340477 0.6876842975616455 3.75899076461792
-0.707162618637085 0.6613551378250122 3.926832675933838
-0.3256673514842987 0.6610042452812195 3.7505011558532715
-1.1841984987258911 0.579584538936615 3.722898483276367
-1.0523630380630493 0.41891762614250183 3.681110382080078
-0.6308262348175049 0.5277387499809265 3.7358644008636475
-1.2765313386917114 0.3556855320930481 3.640921115875244
-1.2765313386917114 0.3556855320930481 3.640921115875244
-0.956912636756897 0.4116588532924652 3.686711549758911
0.004432651214301586 0.6811081767082214 3.7688825130462646
0.1693204939365387 0.12369372695684433 3.823268413543701
-0.5194553136825562 0.519107460975647 3.6999239921569824
-0.26261910796165466 0.933394193649292 4.744203090667725
-0.1825510859489441 0.8355265259742737 3.7475240230560303
0.45687052607536316 -0.28919950127601624 1.1371346712112427
-0.8900348544120789 0.3166516423225403 3.663177728652954
-0.5176675915718079 0.546757161617279 3.7421910762786865
0.08646935969591141 0.7455039024353027 3.762270212173462
0.15688446164131165 0.021246101707220078 3.819817066192627
0.16868571937084198 0.2581399083137512 3.816664934158325
0.17607374489307404 0.37725141644477844 3.810441732406616
0.022118574008345604 0.46761879324913025 3.928591728210449
-0.14167839288711548 0.6540574431419373 3.7583320140838623
-1.0597277879714966 0.30688947439193726 3.641970157623291
-0.14244812726974487 0.7812947034835815 3.7530858516693115
0.07490414381027222 0.4635610580444336 3.7893102169036865
-0.1250850409269333 0.767945408821106 3.7560207843780518
-0.8057936429977417 0.7029916644096375 3.748202323913574
-0.5474666953086853 0.20558542013168335 3.6771175861358643
-0.3452172577381134 0.5326657891273499 4.101930141448975
-0.3452172577381134 0.5326657891273499 4.101930141448975
-0.8066152930259705 0.4148094952106476 3.477047920227051
-0.8321930170059204 0.3213523030281067 3.33791446685791
-0.3682118058204651 0.6351982951164246 4.157792091369629
-2.072946310043335 0.4363347291946411 3.507988452911377
-1.7380375862121582 0.6232823729515076 3.1538760662078857
-0.37916988134384155 0.6279316544532776 4.149956226348877
-0.8334994316101074 0.33994749188423157 3.338676929473877
-0.36861705780029297 0.5059992671012878 4.070107460021973
0.029851041734218597 0.40258267521858215 3.0592665672302246
-0.4333065450191498 0.9106325507164001 4.285017490386963
-0.7423336505889893 0.11554620414972305 3.3548243045806885
-2.0568830966949463 0.4418642222881317 3.4952008724212646
-0.39664897322654724 0.6518672704696655 4.137784481048584
-0.37759503722190857 0.5216109752655029 4.062222480773926
-1.8444262742996216 0.5645642280578613 3.2709970474243164
-0.7386230230331421 0.24173504114151 3.402484893798828
-1.8287415504455566 0.5643851161003113 3.2557871341705322
-1.8328837156295776 0.5681309103965759 3.260435104370117
-1.8235496282577515 0.5548579096794128 3.25197172164917
-1.8335751295089722 0.5593596696853638 3.2622246742248535
-0.7544124126434326 0.24123515188694 3.3769071102142334
-1.8335751295089722 0.5593596696853638 3.2622246742248535
-0.09400363266468048 -0.43306154012680054 3.0983667373657227
-0.08802716434001923 -0.4585449695587158 3.0789198875427246
-0.8035475611686707 0.35715097188949585 3.379018545150757
-0.8278920650482178 0.23542450368404388 3.324068307876587
-2.0551326274871826 0.4380703270435333 3.498323678970337
-0.09069333970546722 -0.45365896821022034 3.081773042678833
-0.09950663894414902 -0.42981666326522827 3.1050398349761963
-0.09950663894414902 -0.42981666326522827 3.1050398349761963
-0.8032434582710266 0.2351335734128952 3.344050168991089
-0.45280274748802185 0.785323977470398 4.156307697296143
-0.8310284614562988 0.1926647424697876 3.327667474746704
-2.0548954010009766 0.4394680857658386 3.500777244567871
-2.0548954010009766 0.4394680857658386 3.500777244567871
-0.4322045147418976 0.6061376333236694 4.06840181350708
-0.4322045147418976 0.6061376333236694 4.06840181350708
-0.8388729095458984 0.3525320291519165 3.3414762020111084
-1.8407161235809326 0.5523234605789185 3.273811101913452
-1.8407161235809326 0.5523234605789185 3.273811101913452
-0.45961788296699524 0.8263906836509705 4.16119909286499
-0.444821834564209 0.6102931499481201 4.069485664367676
-0.8044846057891846 0.27256104350090027 3.3449201583862305
-0.775053083896637 0.2390829473733902 3.362595558166504
-2.0371978282928467 0.4441725015640259 3.4862771034240723
-2.0371978282928467 0.4441725015640259 3.4862771034240723
-2.047006845474243 0.4377879500389099 3.498140335083008
-0.14688123762607574 -0.44270384311676025 3.0907740592956543
-0.47878965735435486 0.5978184938430786 4.029792308807373
-0.48744630813598633 0.7207706570625305 4.0645599365234375
-1.8212028741836548 0.556509256362915 3.261322259902954
-0.7558343410491943 0.24428939819335938 3.3731956481933594
-2.018921136856079 0.4479984641075134 3.472620725631714
-2.043219804763794 0.4423860013484955 3.498088836669922
-0.17279955744743347 -0.4121793210506439 3.1157302856445312
-0.7433852553367615 0.26887983083724976 3.4004898071289062
-2.010370969772339 0.45158466696739197 3.4652740955352783
-0.8279750943183899 0.38960835337638855 3.418513059616089
0.8266294002532959 -0.580089807510376 0.5527001023292542
-0.5275132060050964 0.6999061107635498 4.024094104766846
-0.44551149010658264 0.24137429893016815 3.770125389099121
-0.44551149010658264 0.24137429893016815 3.770125389099121
-0.4417800009250641 0.23118986189365387 3.752695083618164
-0.4467514455318451 0.2273906022310257 3.763927698135376
-0.5119875073432922 0.508171796798706 3.947981834411621
-2.0692715644836426 0.430152952671051 3.5320489406585693
-2.0692715644836426 0.430152952671051 3.5320489406585693
-0.4390459954738617 0.214662566781044 3.7374582290649414
-0.44671013951301575 0.22457565367221832 3.7556302547454834
-0.4441901445388794 0.21577946841716766 3.74709415435791
-0.4550067186355591 0.25334247946739197 3.776386260986328
-0.7616037726402283 0.24170714616775513 3.378257989883423
-0.44716525077819824 0.2258659452199936 3.7533304691314697
-0.5291814804077148 0.6333759427070618 3.993786573410034
-0.43852755427360535 0.19707798957824707 3.727649450302124
-0.7616037726402283 0.24170714616775513 3.378257989883423
-0.5276810526847839 0.6144569516181946 3.986538887023926
-0.4382588267326355 0.20235690474510193 3.7252109050750732
-0.44791385531425476 0.22648885846138 3.748577356338501
-0.45863282680511475 0.2541537284851074 3.775542736053467
-0.4448128938674927 0.21420980989933014 3.7380363941192627
-0.4504817724227905 0.2259499579668045 3.7526333332061768
-0.4386535584926605 0.19747582077980042 3.721006393432617
-2.0499179363250732 0.4293556213378906 3.516622304916382
-0.44907358288764954 0.22252091765403748 3.7440602779388428
-0.44492554664611816 0.20940661430358887 3.7316324710845947
-0.8570566773414612 0.31828588247299194 3.3145499229431152
-1.663934588432312 0.6384168863296509 3.105260133743286
-0.44269540905952454 0.18454450368881226 3.7196292877197266
-0.45460405945777893 0.22873327136039734 3.7497220039367676
-0.8339998126029968 0.22974327206611633 3.320824146270752
-2.284794330596924 0.48023656010627747 3.5973432064056396
-0.42967626452445984 0.1514144390821457 3.677456855773926
-0.8339998126029968 0.22974327206611633 3.320824146270752
-0.4455968141555786 0.19542303681373596 3.718883752822876
-0.43007469177246094 0.1559389978647232 3.6765432357788086
-0.42926740646362305 0.14822062849998474 3.6734840869903564
-0.44797784090042114 0.20769432187080383 3.722726583480835
-0.7598278522491455 0.24233300983905792 3.370857000350952
-2.033027172088623 0.4261443614959717 3.500971794128418
-0.43516093492507935 0.16023074090480804 3.684899091720581
-0.4313145577907562 0.15502679347991943 3.675053596496582
-0.4313145577907562 0.15502679347991943 3.675053596496582
-2.0240931510925293 0.43631237745285034 3.492532253265381
-0.7598278522491455 0.24233300983905792 3.370857000350952
-0.4602974057197571 0.2331281155347824 3.7515995502471924
-0.4311583340167999 0.14245255291461945 3.6708920001983643
-0.4311583340167999 0.14245255291461945 3.6708920001983643
-0.43191298842430115 0.14970557391643524 3.673065423965454
-0.4565223753452301 0.22160261869430542 3.737863540649414
-0.4349774718284607 0.15862511098384857 3.6796488761901855
-0.4464029371738434 0.18770118057727814 3.7086727619171143
-1.7913843393325806 0.5571575164794922 3.2449567317962646
-1.7913843393325806 0.5571575164794922 3.2449567317962646
-1.7913843393325806 0.5571575164794922 3.2449567317962646
-0.45316600799560547 0.2066081315279007 3.723830223083496
-0.4322647750377655 0.1407020390033722 3.6667141914367676
-1.784565806388855 0.5628557205200195 3.2382256984710693
-0.43684595823287964 0.15479399263858795 3.6765151023864746
-0.46181201934814453 0.2305360585451126 3.743560552597046
-0.44871756434440613 0.19035232067108154 3.704568386077881
-0.46459153294563293 0.23212271928787231 3.747147798538208
-2.061135768890381 0.4067991077899933 3.5367941856384277
-0.4513803720474243 0.19330137968063354 3.708164930343628
-0.43930181860923767 0.16102498769760132 3.6757636070251465
-0.4521409869194031 0.19587916135787964 3.709096670150757
-0.43935030698776245 0.15388529002666473 3.672567129135132
-0.43236780166625977 0.13633786141872406 3.6532294750213623
-2.268357753753662 0.4727873206138611 3.591905355453491
-0.43831726908683777 0.14990514516830444 3.6667089462280273
-0.4487729072570801 0.18285924196243286 3.6942193508148193
-0.4395477771759033 0.15295164287090302 3.6669700145721436
-0.5495931506156921 0.7409846186637878 3.986731767654419
-0.5495931506156921 0.7409846186637878 3.986731767654419
-0.4496157467365265 0.17985227704048157 3.6919796466827393
-0.4493054449558258 0.17666785418987274 3.690006971359253
-0.4726071357727051 0.250705748796463 3.750709056854248
-2.2492287158966064 0.4770045876502991 3.574601888656616
-0.44882315397262573 0.1727128028869629 3.684730291366577
-0.43907591700553894 0.14603012800216675 3.659029245376587
-0.447331964969635 0.16953445971012115 3.680824041366577
-0.4221805930137634 0.09794224053621292 3.611501455307007
-0.44216930866241455 0.15008904039859772 3.6637661457061768
-0.4721032679080963 0.23540762066841125 3.7425248622894287
-0.43094658851623535 0.1173558160662651 3.6328423023223877
-0.43094658851623535 0.1173558160662651 3.6328423023223877
-0.4699294865131378 0.2316213846206665 3.7337021827697754
-0.44362351298332214 0.15383608639240265 3.6638691425323486
-0.45979809761047363 0.19904270768165588 3.705244779586792
-0.45979809761047363 0.19904270768165588 3.705244779586792
-0.4367810785770416 0.12841007113456726 3.643495798110962
-0.43776586651802063 0.13274340331554413 3.6456122398376465
-0.434272438287735 0.11778822541236877 3.634390354156494
-0.434272438287735 0.11778822541236877 3.634390354156494
-0.4777257442474365 0.2443433701992035 3.7485508918762207
-0.45827430486679077 0.1899084895849228 3.6953799724578857
-0.4727816879749298 0.23212942481040955 3.7333624362945557
-0.4375954866409302 0.13359034061431885 3.639235734939575
-0.4388575553894043 0.13434571027755737 3.6421427726745605
-0.4635339677333832 0.19856815040111542 3.7052974700927734
-0.4650803208351135 0.20179760456085205 3.708050489425659
-0.4650803208351135 0.20179760456085205 3.708050489425659
-0.44488832354545593 0.1450524926185608 3.6552467346191406
-1.7864190340042114 0.531832754611969 3.2551116943359375
-0.4588262438774109 0.18377451598644257 3.6910252571105957
-0.4588262438774109 0.18377451598644257 3.6910252571105957
-0.47617611289024353 0.23687224090099335 3.736128330230713
-0.47617611289024353 0.23687224090099335 3.736128330230713
-0.48056021332740784 0.24652902781963348 3.7475790977478027
-0.47460049390792847 0.22886773943901062 3.730626106262207
-2.254941940307617 0.46327468752861023 3.588275671005249
-2.307804584503174 0.4528687298297882 3.641852855682373
-0.4431922137737274 0.1355823576450348 3.645808458328247
0.5781680941581726 -0.29082319140434265 1.2443872690200806
-2.1462037563323975 0.49659863114356995 3.478769540786743
-0.46054157614707947 0.18414723873138428 3.6877710819244385
-0.44510963559150696 0.13780350983142853 3.6458380222320557
-0.44510963559150696 0.13780350983142853 3.6458380222320557
-0.5558831691741943 0.6455795168876648 3.9555225372314453
-0.4667768180370331 0.19181594252586365 3.7010226249694824
-0.43774959444999695 0.12140437960624695 3.6248438358306885
-0.4455885887145996 0.12370585650205612 3.6426310539245605
-0.46699613332748413 0.19375282526016235 3.6999216079711914
-0.46699613332748413 0.19375282526016235 3.6999216079711914
-0.45750030875205994 0.17358717322349548 3.6755778789520264
-0.5548413991928101 0.5760999321937561 3.943019151687622
-0.48064422607421875 0.2364369034767151 3.7341136932373047
-0.4607210159301758 0.17818713188171387 3.681468963623047
-0.4688199460506439 0.2032914161682129 3.700875997543335
-0.5569369196891785 0.5753366947174072 3.941596031188965
-0.4389711320400238 0.11287042498588562 3.619337320327759
-0.4389711320400238 0.11287042498588562 3.619337320327759
-0.4377549886703491 0.10633140057325363 3.614670515060425
-0.46925416588783264 0.19818294048309326 3.6967885494232178
-0.4565127491950989 0.15848074853420258 3.6612722873687744
-0.4604828357696533 0.17427894473075867 3.6703550815582275
-0.4378669857978821 0.10903530567884445 3.610558032989502
-0.4692698121070862 0.19378779828548431 3.6910994052886963
-0.4692698121070862 0.19378779828548431 3.6910994052886963
-0.4672844111919403 0.1885579228401184 3.68619704246521
-0.4789031744003296 0.2226509153842926 3.715381145477295
-0.5631139874458313 0.6019243597984314 3.9469988346099854
-0.455318808555603 0.1532903015613556 3.650930404663086
-0.4600280523300171 0.15962989628314972 3.6618363857269287
-0.482622355222702 0.22510796785354614 3.718271493911743
-2.232602834701538 0.46488383412361145 3.5718300342559814
-0.45549049973487854 0.1475117802619934 3.645995616912842
-0.4748545289039612 0.20130540430545807 3.6954476833343506
-0.448901504278183 0.1396782398223877 3.6278648376464844
-0.46956562995910645 0.18215657770633698 3.6793482303619385
-0.460359662771225 0.1568753868341446 3.655734062194824
-0.44660356640815735 0.11374539881944656 3.619682550430298
-0.4842914342880249 0.2253512740135193 3.71647310256958
-0.457436203956604 0.14517474174499512 3.642624616622925
-0.4724496304988861 0.189395472407341 3.681344509124756
-0.45684367418289185 0.14936389029026031 3.6402173042297363
-0.45714715123176575 0.14954400062561035 3.640867233276367
-0.6273611783981323 -0.35982561111450195 3.162736177444458
-0.4630146622657776 0.1596183180809021 3.6549787521362305
-0.47923001646995544 0.20330198109149933 3.6907644271850586
-0.466550350189209 0.16485625505447388 3.654566764831543
-1.5379877090454102 0.7360547780990601 3.00317645072937
-0.48411521315574646 0.215152308344841 3.6985068321228027
-2.286604404449463 0.4491415023803711 3.631711006164551
-0.4742402136325836 0.17562928795814514 3.666306734085083
-0.4729548990726471 0.17273113131523132 3.6614022254943848
-0.4793311357498169 0.18144720792770386 3.6763665676116943
-0.5579569339752197 0.49132758378982544 3.886213779449463
-0.4635826051235199 0.14600452780723572 3.635007858276367
-2.2228546142578125 0.4619472622871399 3.5688376426696777
-0.4974450469017029 0.24678076803684235 3.7215607166290283
-0.5014756321907043 0.24706554412841797 3.730787992477417
-2.27764892578125 0.44856151938438416 3.6246097087860107
-0.47525259852409363 0.17116764187812805 3.6608784198760986
-0.47525259852409363 0.17116764187812805 3.6608784198760986
-0.49053385853767395 0.237162247300148 3.702122211456299
-0.5050191879272461 0.24863478541374207 3.7339391708374023
-0.496909499168396 0.23602011799812317 3.7135558128356934
-0.4655139446258545 0.14576411247253418 3.632770538330078
-0.5000512599945068 0.23869676887989044 3.7149646282196045
-0.47480571269989014 0.16219741106033325 3.64986515045166
-0.46840324997901917 0.14889442920684814 3.6335222721099854
-0.47149229049682617 0.1562461405992508 3.6408133506774902
-0.5058289170265198 0.23632431030273438 3.7248339653015137
-0.5027025938034058 0.24504685401916504 3.7183094024658203
-0.4970368444919586 0.2228400856256485 3.702885150909424
-0.6260141730308533 -0.35831138491630554 3.1588075160980225
-0.6260141730308533 -0.35831138491630554 3.1588075160980225
-0.4975927770137787 0.21955958008766174 3.70104718208313
-0.4714769721031189 0.13142965734004974 3.633305072784424
-0.4729069769382477 0.15380454063415527 3.6359193325042725
-0.47080522775650024 0.15885017812252045 3.6308207511901855
-2.127509593963623 0.5010245442390442 3.477590799331665
-0.47437432408332825 0.15843333303928375 3.638411521911621
-2.250822067260742 0.4507198929786682 3.6046535968780518
-0.4750451445579529 0.15707533061504364 3.6367809772491455
-0.48197609186172485 0.1732640564441681 3.654979705810547
-0.49540770053863525 0.20692481100559235 3.6887266635894775
-0.5001853704452515 0.2241917997598648 3.701101779937744
-0.5001853704452515 0.2241917997598648 3.701101779937744
-0.4960385262966156 0.20994022488594055 3.68826961517334
-0.49670618772506714 0.21430887281894684 3.689197063446045
-0.49670618772506714 0.21430887281894684 3.689197063446045
-0.5911056995391846 0.6985012292861938 3.9470276832580566
-0.49286749958992004 0.19488957524299622 3.6769368648529053
-0.49987298250198364 0.21882617473602295 3.6944100856781006
-0.47811904549598694 0.1592872589826584 3.6370041370391846
-0.4709000587463379 0.13410396873950958 3.618548631668091
-0.27501124143600464 -0.39580294489860535 3.1164491176605225
-0.2676372826099396 -0.41930899024009705 3.0964698791503906
-0.2799451947212219 -0.3934209644794464 3.125340461730957
-0.27551689743995667 -0.39983347058296204 3.112975597381592
-0.4879276156425476 0.1731358915567398 3.6474640369415283
-0.2726777195930481 -0.40042129158973694 3.1061129570007324
-0.4777486026287079 0.14288131892681122 3.6187729835510254
-0.4905860424041748 0.18317744135856628 3.6498239040374756
-0.4917939603328705 0.17633867263793945 3.652456283569336
-0.48504388332366943 0.1613513082265854 3.635005235671997
-0.4978877007961273 0.19840730726718903 3.6666276454925537
-0.4778415858745575 0.1419697105884552 3.614969491958618
-0.4985179901123047 0.1966707706451416 3.6659421920776367
-0.5176220536231995 0.2420141100883484 3.7100489139556885
-0.49015048146247864 0.17055830359458923 3.641634464263916
-0.5181936025619507 0.24797993898391724 3.708258628845215
-0.4962078630924225 0.1737758368253708 3.648712396621704
-0.4886742830276489 0.16203728318214417 3.630342483520508
-0.4886742830276489 0.16203728318214417 3.630342483520508
-0.5022193789482117 0.19400392472743988 3.66327166557312
-0.5008086562156677 0.19312088191509247 3.6599173545837402
-0.4934941232204437 0.16959674656391144 3.639674663543701
-0.494616836309433 0.1771344393491745 3.642451047897339
-0.5842883586883545 0.5073801279067993 3.873617649078369
-0.49319988489151 0.16607354581356049 3.63811993598938
-0.5108047127723694 0.21706564724445343 3.6809802055358887
-0.5009765028953552 0.19191282987594604 3.653512954711914
-0.4965403079986572 0.17200158536434174 3.637280225753784
-0.5900171399116516 0.501740574836731 3.8550994396209717
-0.4975005090236664 0.1708909124135971 3.618175506591797
-0.5072146058082581 0.18382813036441803 3.640096664428711
-0.5004398226737976 0.16213807463645935 3.6185803413391113
-0.6090534925460815 0.6447186470031738 3.897073268890381
-0.6093800067901611 0.6449839472770691 3.897672176361084
-0.6093800067901611 0.6449839472770691 3.897672176361084
-0.7926714420318604 0.24681757390499115 3.3424935340881348
-0.5298169851303101 0.24661892652511597 3.6864655017852783
-0.5263489484786987 0.22678466141223907 3.6708462238311768
-0.6094328165054321 0.6400186419487 3.8883328437805176
-0.6094328165054321 0.6400186419487 3.8883328437805176
-0.5138679146766663 0.17838221788406372 3.633295774459839
-1.5186543464660645 0.6588618159294128 3.0365543365478516
-0.5138679146766663 0.17838221788406372 3.633295774459839
-0.5138679146766663 0.17838221788406372 3.633295774459839
-0.5322094559669495 0.2306905835866928 3.6783270835876465
-0.5213978886604309 0.19706490635871887 3.6469807624816895
-0.6086755990982056 0.5760653614997864 3.86871337890625
-0.5279654860496521 0.21647624671459198 3.6597723960876465
-0.5279654860496521 0.21647624671459198 3.6597723960876465
-0.5258454084396362 0.20031540095806122 3.6466164588928223
-0.6151095628738403 0.6332689523696899 3.8771376609802246
-0.5189523696899414 0.18233376741409302 3.6260814666748047
-0.8089882731437683 0.2256954312324524 3.3303754329681396
-0.5186602473258972 0.17929378151893616 3.6223385334014893
-0.6202526092529297 0.6351858377456665 3.875669002532959
-0.5256085991859436 0.18749770522117615 3.629032611846924
-0.5271955728530884 0.18571709096431732 3.6283822059631348
-0.5249250531196594 0.18610499799251556 3.6179463863372803
-0.8119269609451294 0.3817308247089386 3.410734176635742
-0.8119269609451294 0.3817308247089386 3.410734176635742
-0.5418848395347595 0.2268071174621582 3.6558420658111572
-0.5418848395347595 0.2268071174621582 3.6558420658111572
-0.5292045474052429 0.18954887986183167 3.6212007999420166
-0.5521357655525208 0.23287543654441833 3.668750524520874
-0.6157472133636475 0.4827173054218292 3.7890982627868652
-0.629909336566925 0.5883089900016785 3.8195865154266357
-0.6319968104362488 -0.3557312786579132 3.1641383171081543
-0.6321506500244141 0.527478814125061 3.80056095123291
-0.22785234451293945 -0.7998760342597961 2.820425033569336
-2.690250873565674 -0.36093655228614807 4.416180610656738
-2.679082155227661 -0.30381596088409424 4.404046535491943
-2.6665635108947754 -0.3123445212841034 4.392770767211914
-0.7799329161643982 0.25696244835853577 3.351466178894043
-0.7999523878097534 0.3640028238296509 3.38730525970459
-0.6670845150947571 0.4974649250507355 3.6888790130615234
0.7857959270477295 -0.580810010433197 0.657543957233429
-0.5680493116378784 0.023275218904018402 3.403919219970703
-0.7562223076820374 0.7361212968826294 3.7602427005767822
-1.4916881322860718 0.597697377204895 3.0693695545196533
-0.6144504547119141 0.11501893401145935 3.432887077331543
-0.7418776750564575 0.7604150772094727 3.656344175338745
-0.7418776750564575 0.7604150772094727 3.656344175338745
-0.7494617700576782 0.6679739952087402 3.654435157775879
-0.7301175594329834 0.46120011806488037 3.6045947074890137
-0.7510958909988403 0.5181878805160522 3.6096107959747314
-0.6974802613258362 0.29807814955711365 3.4757795333862305
-0.6925488710403442 0.2949076294898987 3.462153196334839
0.5793517231941223 -0.6603752970695496 1.0762008428573608
-0.7388617992401123 0.42489734292030334 3.5243585109710693
-0.7405141592025757 0.4260084629058838 3.5273826122283936
-0.7518380880355835 0.46900421380996704 3.5427815914154053
-0.7010279297828674 0.2551051378250122 3.4401891231536865
-0.7130578756332397 0.26988428831100464 3.4327995777130127
-0.7179476618766785 0.27077120542526245 3.4338488578796387
-1.4296164512634277 0.6304079294204712 3.0360875129699707
-0.7179028987884521 0.27074337005615234 3.4337053298950195
-0.7125101685523987 0.25383177399635315 3.414823293685913
-0.7768518328666687 0.47990962862968445 3.5363807678222656
-0.7205889821052551 0.25556328892707825 3.4187073707580566
-0.7105706930160522 0.23696984350681305 3.394775867462158
-0.7238810062408447 0.25477612018585205 3.409266948699951
-0.8498644232749939 0.3200976550579071 3.3157858848571777
-0.7262349128723145 0.25368478894233704 3.4082870483398438
-0.7278868556022644 0.2654930353164673 3.4101829528808594
-0.7278868556022644 0.2654930353164673 3.4101829528808594
-1.399082064628601 0.713568925857544 3.006397008895874
-1.399082064628601 0.713568925857544 3.006397008895874
-0.8817542791366577 0.24269840121269226 3.297844409942627
-1.3877427577972412 0.7129724025726318 2.99682354927063
-0.8830868005752563 0.27076050639152527 3.2933871746063232
-0.8832408785820007 0.2664499580860138 3.288851022720337
-0.8886744379997253 0.2398848980665207 3.293222665786743
-0.8886744379997253 0.2398848980665207 3.293222665786743
-0.8908622860908508 0.25874850153923035 3.2927212715148926
-0.8924880623817444 0.358588308095932 3.2948358058929443
-0.8888792395591736 0.2794138491153717 3.2889745235443115
-0.8821364641189575 0.22852995991706848 3.301957607269287
-0.8917137980461121 0.27743130922317505 3.287391424179077
-0.8917137980461121 0.27743130922317505 3.287391424179077
-0.9031609296798706 0.22996264696121216 3.292957305908203
-0.8970860838890076 0.27784115076065063 3.282562732696533
-0.9063442349433899 0.27853530645370483 3.286442518234253
-0.9150013327598572 0.22789254784584045 3.2869861125946045
-2.374812602996826 -0.25700947642326355 4.184493541717529
-0.8699283599853516 0.2682283818721771 3.288998603820801
-0.9359025955200195 0.20450806617736816 3.2863504886627197
-0.8799757957458496 0.19748196005821228 3.30767560005188
-0.9424759149551392 0.22767625749111176 3.2894771099090576
-0.9486064314842224 0.23284779489040375 3.2849960327148438
-0.8526889085769653 0.31783387064933777 3.3170156478881836
-0.8610264658927917 0.32203537225723267 3.33058762550354
-0.8763414025306702 0.34900781512260437 3.307657241821289
-1.244584321975708 -0.04509242624044418 3.671546220779419
-0.9899601936340332 0.21608984470367432 3.289071798324585
-0.7943926453590393 1.1520198583602905 2.9414894580841064
-0.7943926453590393 1.1520198583602905 2.9414894580841064
-0.9707622528076172 -1.0696089267730713 3.1513261795043945
-0.8659049868583679 0.27519452571868896 3.2980973720550537
-1.3190243244171143 0.7103286981582642 2.965517997741699
-1.4759658575057983 0.4720754623413086 3.152933120727539
-0.8685632944107056 0.29648613929748535 3.303722620010376
-0.871656060218811 0.35126662254333496 3.311262845993042
-0.8637009859085083 0.1684654802083969 3.2977468967437744
-0.8537800312042236 0.33562198281288147 3.317453145980835
-0.8537800312042236 0.33562198281288147 3.317453145980835
-1.49166738986969 0.4689692258834839 3.173430919647217
-0.8648731112480164 0.2980576753616333 3.3030333518981934
-1.5225017070770264 -0.3106597065925598 3.634955644607544
0.781204342842102 -0.566781759262085 0.6572993397712708
0.7729788422584534 -0.5778725147247314 0.6513354182243347
-2.300158977508545 0.5448479652404785 3.531407594680786
-1.6531403064727783 -0.3436601161956787 3.7518417835235596
-1.4520533084869385 0.20126983523368835 3.4267001152038574
-1.1259468793869019 0.7532228827476501 2.9914157390594482
-0.8596422076225281 0.1452668309211731 3.2980947494506836
-0.8510855436325073 0.1661153882741928 3.295241594314575
-0.8577799201011658 0.2487328201532364 3.297271966934204
-1.3288995027542114 0.8972432613372803 2.5696446895599365
-0.8616294860839844 0.2968147397041321 3.3042609691619873
-1.1975773572921753 0.7635341882705688 2.983100652694702
-1.4790961742401123 0.46974292397499084 3.163834810256958
-0.8581880331039429 0.17285677790641785 3.2996468544006348
-1.2146052122116089 0.7933444380760193 2.984225273132324
-1.2264963388442993 0.6899927854537964 2.993818759918213
-0.8538253307342529 0.33155307173728943 3.3145153522491455
-1.767261266708374 0.6325795650482178 3.1586062908172607
-1.2525928020477295 0.6979128122329712 2.9922842979431152
-1.2525928020477295 0.6979128122329712 2.9922842979431152
-1.2592549324035645 0.7021327018737793 2.9996581077575684
-1.2592549324035645 0.7021327018737793 2.9996581077575684
-0.8538253307342529 0.33155307173728943 3.3145153522491455
-1.3013638257980347 0.6444644927978516 3.036672592163086
-1.2250690460205078 0.772844672203064 2.9405014514923096
-0.7520570755004883 0.23621661961078644 3.3833558559417725
-1.4633395671844482 0.486432820558548 3.1480255126953125
-1.2673512697219849 0.7162362933158875 2.9856197834014893
-2.18025803565979 -0.29430973529815674 4.0960469245910645
-2.2058489322662354 -0.28745225071907043 4.119513034820557
-1.3149313926696777 0.6120132207870483 3.033221960067749
-2.2242231369018555 0.5557809472084045 3.468209743499756
-2.2242231369018555 0.5557809472084045 3.468209743499756
-1.278460144996643 0.6820406913757324 2.9867231845855713
-1.278460144996643 0.6820406913757324 2.9867231845855713
-1.3162652254104614 0.628084659576416 3.030689239501953
-1.3162652254104614 0.628084659576416 3.030689239501953
-1.3195905685424805 0.6056589484214783 3.030721664428711
-1.76730215549469 0.6179904341697693 3.162567138671875
-1.2838525772094727 0.7047308683395386 2.9834351539611816
-1.4731292724609375 0.47561925649642944 3.1643755435943604
-1.353432059288025 0.5824919939041138 3.065685749053955
-1.3249086141586304 0.6090775728225708 3.030944347381592
-1.3354456424713135 0.5898597240447998 3.043229579925537
-0.25928637385368347 -0.4305025041103363 1.8153129816055298
-0.6761766076087952 -0.7240375280380249 3.0620410442352295
-1.4738167524337769 0.4644406735897064 3.1695785522460938
-2.2570865154266357 -0.2737450897693634 4.149911403656006
-1.2845284938812256 0.6871554851531982 2.978266477584839
-1.355581521987915 0.5614514350891113 3.063019275665283
-1.2889503240585327 0.6862443089485168 2.980295419692993
-1.3493374586105347 0.5887945890426636 3.051182985305786
-2.099998950958252 0.4409795105457306 3.5185463428497314
-1.8256983757019043 0.224259614944458 3.613524913787842
-0.8520416617393494 0.16044220328330994 3.2941884994506836
-1.2886658906936646 0.6825099587440491 2.971757411956787
-1.2886658906936646 0.6825099587440491 2.971757411956787
-1.372358798980713 0.5593301057815552 3.072202682495117
-0.855170726776123 0.1597498506307602 3.2998695373535156
-1.3049925565719604 0.7085942029953003 2.9791364669799805
-1.3049925565719604 0.7085942029953003 2.9791364669799805
-0.8451664447784424 0.16330814361572266 3.284898519515991
-0.7810500860214233 0.3082384765148163 3.378941059112549
-0.32492536306381226 0.5969642400741577 4.176684379577637
-0.32492536306381226 0.5969642400741577 4.176684379577637
-0.780698835849762 0.30537065863609314 3.377702236175537
-0.27307483553886414 0.3140696883201599 3.960458517074585
-0.780698835849762 0.30537065863609314 3.377702236175537
-0.3352709710597992 0.5337408781051636 4.112960338592529
-3.038161516189575 0.21176910400390625 4.300644397735596
-0.33739155530929565 0.4949398934841156 4.090689659118652
-0.32461950182914734 0.5201590061187744 4.108796119689941
-0.32461950182914734 0.5201590061187744 4.108796119689941
-1.4385136365890503 0.5173770189285278 3.1208231449127197
-0.9080619215965271 0.4287780225276947 3.3175668716430664
-2.2281014919281006 -0.30230841040611267 4.142251968383789
-0.5128498077392578 0.2102237045764923 3.6709446907043457
-0.5128498077392578 0.2102237045764923 3.6709446907043457
-0.5033168792724609 0.18476878106594086 3.650003671646118
-0.5844665169715881 0.5049512386322021 3.8610680103302
-0.5844665169715881 0.5049512386322021 3.8610680103302
-0.5041509866714478 0.19244661927223206 3.6541783809661865
-0.4879387617111206 0.14957986772060394 3.6156835556030273
-0.49919089674949646 0.18004758656024933 3.6453018188476562
-0.7398645877838135 0.119444340467453 3.3606340885162354
-0.5067968964576721 0.20991095900535583 3.672309637069702
-0.30305683612823486 0.08930288255214691 3.6876320838928223
-0.4207381010055542 1.0246955156326294 4.444103240966797
-0.4207381010055542 1.0246955156326294 4.444103240966797
-1.5014934539794922 0.7301201820373535 3.0043318271636963
-1.4556303024291992 0.5081843733787537 3.1396396160125732
-0.5186665654182434 0.24445101618766785 3.709700584411621
-0.5042018294334412 0.21116621792316437 3.6784441471099854
-0.2771163284778595 -0.40334442257881165 3.1117405891418457
-1.2920538187026978 0.6410893201828003 3.016467809677124
-0.5096774101257324 0.22999148070812225 3.6997814178466797
-1.5373879671096802 0.6604210138320923 3.041531562805176
-0.8978374600410461 0.23164580762386322 3.2933149337768555
-0.4415229856967926 0.7080705165863037 4.128093719482422
-0.5042406320571899 0.22033612430095673 3.6902549266815186
-0.5017604231834412 0.2032318264245987 3.6875147819519043
-0.5011234283447266 0.20869579911231995 3.6867728233337402
-0.9081849455833435 0.2128077745437622 3.3055672645568848
-0.428758829832077 1.0237387418746948 4.450445652008057
-0.8922613263130188 0.2831438183784485 3.2804782390594482
-0.5899068713188171 0.6808857321739197 3.9336259365081787
-0.740489661693573 0.10940934717655182 3.3580143451690674
0.10690697282552719 0.21446578204631805 2.4934885501861572
-1.2152657508850098 0.7604237198829651 2.948209524154663
-0.4988557994365692 0.2062537670135498 3.691102981567383
-1.2088488340377808 0.7610886693000793 2.9461758136749268
-0.49754732847213745 0.21905353665351868 3.694887638092041
-0.8661783337593079 0.26673978567123413 3.3119256496429443
-0.5869925022125244 0.7756181359291077 3.9546830654144287
0.2140532284975052 0.2512563169002533 2.520697593688965
-0.7693621516227722 0.41325193643569946 3.4587979316711426
-0.42104053497314453 1.0027203559875488 4.406735420227051
-1.4721513986587524 0.48387399315834045 3.156017541885376
-0.89835125207901 0.28863397240638733 3.287282943725586
0.10654947906732559 0.21631154417991638 2.4926087856292725
0.8033332228660583 -0.5646747350692749 0.6232366561889648
-0.49806687235832214 0.23401497304439545 3.7112667560577393
-0.4812059998512268 0.173125222325325 3.66746187210083
-0.5634449124336243 1.374863624572754 4.504151344299316
-1.483906626701355 0.477039098739624 3.16843843460083
-0.4610310196876526 0.13745509088039398 3.6236889362335205
-0.905213475227356 0.22949440777301788 3.291048526763916
0.5248256921768188 -0.392966091632843 1.0807909965515137
-1.51142156124115 0.7506614327430725 2.9840610027313232
-1.51142156124115 0.7506614327430725 2.9840610027313232
-0.4741966128349304 0.1722734272480011 3.6606318950653076
-0.4741966128349304 0.1722734272480011 3.6606318950653076
-0.4279463589191437 1.010648488998413 4.41465950012207
-0.49657249450683594 0.24778597056865692 3.726583480834961
-0.48654258251190186 0.21384470164775848 3.7001540660858154
-0.3399832844734192 0.4929351806640625 4.081113338470459
-0.3399832844734192 0.4929351806640625 4.081113338470459
-0.7406631708145142 0.11197379976511002 3.3555748462677
-1.7075470685958862 0.6462337374687195 3.131826877593994
-0.3379156291484833 0.4884861707687378 4.069119453430176
-0.48229119181632996 0.2218078076839447 3.715704917907715
-0.4516248106956482 0.14120331406593323 3.639240264892578
0.3873405158519745 -0.15072859823703766 1.6948460340499878
-1.8208335638046265 0.5611790418624878 3.253490686416626
-0.49062398076057434 0.24675559997558594 3.7446963787078857
-0.512382984161377 0.6222972869873047 4.016174793243408
-0.908728301525116 0.28914904594421387 3.2848384380340576
-0.4736119210720062 0.20589827001094818 3.7031030654907227
-0.45412182807922363 0.15163607895374298 3.6534488201141357
-0.4377933740615845 0.1082654520869255 3.613987922668457
-0.4018058776855469 0.835274875164032 4.285386562347412
-0.4325759708881378 0.4888078272342682 4.010002136230469
-0.4781736135482788 0.22474074363708496 3.7222230434417725
-0.8075159788131714 0.3320477306842804 3.3706884384155273
-0.44548383355140686 0.1378081738948822 3.637676954269409
-0.4767448604106903 0.217749685049057 3.719926118850708
-0.8653430342674255 0.17146219313144684 3.3048133850097656
-0.3712952435016632 0.6350051164627075 4.164567947387695
-0.44923102855682373 0.6247447729110718 4.070455074310303
-0.481685072183609 0.2384142130613327 3.735095262527466
-0.45261597633361816 0.6151730418205261 4.077478408813477
-0.4333699643611908 0.10416176915168762 3.610247850418091
-0.4851812720298767 0.9465597867965698 4.2015204429626465
-1.6618391275405884 -0.3074566125869751 3.755786657333374
-0.4563297927379608 0.16670219600200653 3.6723034381866455
-0.559355616569519 0.650807797908783 3.9623076915740967
-1.6413240432739258 -0.33346259593963623 3.7324235439300537
-2.3380393981933594 -0.3866997957229614 4.181944370269775
-0.4851803481578827 0.9349561333656311 4.198399543762207
-1.7393488883972168 0.5677404403686523 3.208543062210083
-2.024793863296509 0.4551522433757782 3.4723753929138184
-0.46690046787261963 0.2008587121963501 3.7049195766448975
-0.4507974088191986 0.15375395119190216 3.6632282733917236
-0.4602750837802887 0.18125775456428528 3.689419984817505
-0.9179511070251465 0.2581673264503479 3.2830443382263184
-0.5135278701782227 0.6123847961425781 3.9988760948181152
-0.45235368609428406 0.16797178983688354 3.6726362705230713
-2.890881299972534 2.874337911605835 9.571952819824219
-0.4451196789741516 0.1445469707250595 3.655869722366333
-0.7604013085365295 0.27087295055389404 3.386482000350952
-1.8370420932769775 0.5753318667411804 3.2586843967437744
-0.9364650845527649 0.5933630466461182 2.848048210144043
-0.7972780466079712 0.306155800819397 3.360088586807251
-0.8611112833023071 0.3342190086841583 3.2973997592926025
-0.7972780466079712 0.306155800819397 3.360088586807251
-0.4407137632369995 0.1310010552406311 3.645024538040161
-0.7972780466079712 0.306155800819397 3.360088586807251
0.39028099179267883 -0.14922989904880524 1.700920581817627
-0.4275277853012085 0.10632674396038055 3.614171266555786
-0.50177001953125 0.49037906527519226 3.945943593978882
-1.8004423379898071 0.5384231209754944 3.267076253890991
-0.619626522064209 -0.38165709376335144 3.1518313884735107
-0.45239394903182983 0.1727161556482315 3.681926727294922
-0.4437476396560669 0.14762333035469055 3.6591663360595703
-0.5481082201004028 0.5828539133071899 3.9510715007781982
-0.5417548418045044 0.5246952176094055 3.9312493801116943
-0.7899026274681091 0.2713414430618286 3.349050521850586
-1.4130332469940186 0.6005074977874756 3.058803081512451
0.6834428906440735 -0.41561025381088257 1.0273975133895874
-0.44225481152534485 0.24253366887569427 3.7675774097442627
-0.3816017508506775 0.629781186580658 4.1401495933532715
-0.3816017508506775 0.629781186580658 4.1401495933532715
-0.4474390745162964 0.16283608973026276 3.6725375652313232
-0.5529917478561401 0.6481451988220215 3.9713802337646484
-0.7883810997009277 0.19559067487716675 3.346057176589966
-0.47924354672431946 0.24740956723690033 3.757164478302002
-0.8683254718780518 0.15123344957828522 3.305734872817993
-0.4543765187263489 0.6273922920227051 4.069287300109863
-0.4752557873725891 0.24781668186187744 3.7494258880615234
-0.7749680876731873 0.22282575070858002 3.347454309463501
-1.418923020362854 0.5909955501556396 3.0669748783111572
-0.43880265951156616 0.14054706692695618 3.654789447784424
-0.44547238945961 0.165507510304451 3.67278790473938
0.8197912573814392 -0.5777187347412109 0.5640658140182495
-1.8223825693130493 0.5629143118858337 3.258108615875244
