ply
format ascii 1.0
element vertex 799
property float x
property float y
property float z
end_header
-0.06897111578119848 -0.019191469687108213 2.4979610793175526
-0.3687863751952885 0.09816917420976827 3.4417050349697904
-0.40692509012205774 0.12754994996493577 3.5375036039180534
-0.32145521117193826 0.07245897576657978 3.3694461642275177
-0.4995209305631919 0.2150299638869473 3.7517114856963656
-0.10609930971383934 -0.029040745173235356 2.515424832652399
-0.3945396781563543 0.11552164447590334 3.5053310799437623
-0.3945396781563543 0.11552164447590334 3.5053310799437623
-0.3228719577970193 0.05477866075472972 3.3337113255589905
-0.32440403323912065 0.05708499071297833 3.3386636526961935
-0.32440403323912065 0.05708499071297833 3.3386636526961935
-0.49125853091320204 0.26684932710253056 3.779056751575986
-0.46093528653514726 0.22503207025628744 3.6601467263066296
-0.06941801656571442 -0.01983998382410619 2.498863904590601
-0.4333349970014852 0.14544368366476038 3.6001593328029915
-0.40333825737734685 0.12333589257518411 3.5314697663546757
-0.3011359469171519 0.04256064083181508 3.2825038070818895
-0.3011359469171519 0.04256064083181508 3.2825038070818895
-0.4004917446191576 0.13314173366429052 3.570764655123557
-0.4767427025643952 0.19067961223788257 3.701726330379457
-0.3294758201571143 0.06043330977302705 3.3518154520640415
-0.3299595101782578 0.06064656544309104 3.3530304069140704
-0.09181065481554469 -0.029616341295504917 2.5102687618252104
-0.40633214405644313 0.1386290847432292 3.583264858109142
-0.09181065481554469 -0.029616341295504917 2.5102687618252104
-0.3221304960598628 0.054442937371224506 3.3342224195682806
-0.5353778279656284 0.2741333195687575 3.8968029599911933
-0.4039835491964872 0.1354022587808431 3.5723200122384857
-0.4039835491964872 0.1354022587808431 3.5723200122384857
-0.3761096239226264 0.11474113723115704 3.509338723469144
-0.4048676504917692 0.1384277960002556 3.5758422987194214
-0.4048589818817032 0.13824983821066059 3.576094541577182
-0.41903715902337485 0.1350960838083697 3.570122967572175
-0.3276008081479524 0.06008943260332503 3.348761016475459
-0.2990082532929426 0.040707903152005225 3.279588460517684
-0.08976024510926646 -0.031017099619327495 2.501731897413383
-0.30668381408602496 0.046784219518769356 3.298163285611602
-0.15885729447211616 -0.03622092484662152 2.575241717629767
-0.38367459871768367 0.10810671833888635 3.4848568863701446
-0.40897239819819253 0.1278614449183543 3.548028980057051
0.00035226188329878197 0.0750380228403168 2.738718526527268
-0.4506083981931562 0.17163693521021878 3.646621324986073
-0.4641672764733611 0.17584522453527512 3.677953590168147
-0.3229344069791835 0.05607734582374043 3.3394912542445114
-0.31892450542664336 0.053500962316052024 3.331358940256908
-0.4001238174392934 0.12132942641837192 3.5269945178971507
-0.5753155086477029 0.2910193095073062 3.9911839072662336
-0.06908165160283837 -0.020083750453665172 2.4987914356282226
-0.06908165160283837 -0.020083750453665172 2.4987914356282226
-0.470974579187328 0.18856792073230189 3.7352066892166484
-0.470277522782318 0.25450075681001777 3.7259300295956215
-0.4695862793483606 0.25425194352040575 3.726251401523906
-0.326908564393024 0.07397478611065708 3.379312406422819
-0.3981252429626058 0.12226131719236219 3.527073927131545
-0.38913652385483805 0.1239824479355464 3.538439910744084
-0.4970910667171896 0.23362243397029947 3.760656584793695
-0.0697642494571025 -0.020951958512718576 2.500015132288578
-0.3846233372244293 0.10982534197508352 3.4959502475101942
-0.06458157699255479 0.004770745674789754 2.509798602031151
-0.5271215883467079 0.27688018856457447 3.8711481053810726
-0.489538372545496 0.26289945012914784 3.7698778103248918
-0.41181817026908624 0.1314487668034972 3.562187600333501
-0.3390058532847358 0.07113940749849264 3.383047364177781
-0.5064483480415765 0.27086436363966293 3.817954027348383
-0.400080975754504 0.1233491758148549 3.5337561789507923
-0.07861427083507001 -0.031018144437611864 2.4911228258782576
-0.33860948919730754 0.07233519530237605 3.3826617978602562
-0.33891198084850943 0.07228366285379184 3.382645262147234
-0.5011671184169143 0.21652120310729825 3.7717833388788944
-0.30025210683555953 0.0545269608171879 3.311607797499133
-0.30025210683555953 0.0545269608171879 3.311607797499133
-0.09016473561578288 -0.030121198655443025 2.5064638601501037
-0.48525202583299154 0.20210426874704143 3.7688851752334083
-0.5181019307972786 0.23553662546776477 3.8148984468351306
-0.5181019307972786 0.23553662546776477 3.8148984468351306
-0.3315110055238982 0.06729993632892226 3.3670640109203043
-0.3069613608179779 0.05810790462961229 3.327629079031369
-0.5447427113249015 0.27067241330487296 3.910888412851421
-0.5433655398608271 0.27041943938821805 3.9114491307491175
-0.5104161718699325 0.24270907085422933 3.798456751059505
-0.3317092238529511 0.5059863018065731 3.70298575089813
-0.3972674436845254 0.11844134807773878 3.5308966920558547
-0.3214203289712512 0.4938781025788406 3.6623343084299935
-0.3214203289712512 0.4938781025788406 3.6623343084299935
-0.5076472037421595 0.23275758833978405 3.7947770565712164
-0.4977544703136827 0.21636961083043646 3.7962224246745584
-0.06478724656211424 0.0045074191368159044 2.508849499140282
-0.5064163291647236 0.21841306181161843 3.7891818256722867
-0.3295733881363161 0.06757698622239595 3.3643493342730113
-0.3126179265886725 0.47884415856183987 3.6277621287579493
-0.318173519008994 0.05805704811759135 3.336554240087452
-0.35739799653886517 0.0890243660606258 3.4325800860347537
-0.3029988314714732 0.054624995691887494 3.3175334655238156
-0.12065525381578403 -0.281761186408967 3.1008171840419605
-0.12065525381578403 -0.281761186408967 3.1008171840419605
-0.3893940870391606 0.1118597282991833 3.510418859346049
-0.12501237350592295 -0.2660811197661771 3.1126677808644514
-0.12336572511286693 -0.2673062273297226 3.105133682606486
-0.5188456295148801 0.2352196434632589 3.8249479526277974
-0.336350519567691 0.07896366761444133 3.400235585816555
-0.12287993458069087 -0.2676389523855109 3.103470429970093
-0.3106191749977755 0.05006483215548743 3.319934175523743
-0.3394931196624403 0.07569233993985973 3.389867438143357
-0.4224821502172216 0.14375204260732372 3.5940905962911502
-0.5108920826568873 0.2161778950945439 3.7987273945945956
-0.4818136157160657 0.25787591640092417 3.747110864998617
-0.07085743141324402 -0.023377119417573696 2.5025990339252377
-0.5420931671349518 0.2710681488582327 3.9022309724480446
-0.4853837242287308 0.197943480558821 3.7422007113238145
-0.38831143518425354 0.12074842926451243 3.5320609946114665
-0.38831143518425354 0.12074842926451243 3.5320609946114665
-0.5150327620785914 0.23226769085142032 3.8150929661535207
-0.4525701547197731 0.16971707444483514 3.665696635687821
-0.051693894229795236 -0.050357806255424256 2.7943067461969764
-0.5206607260386101 0.23118252393048355 3.827271748304899
-0.04486448743472202 -0.05408848165428045 2.772279554781211
-0.5217903056357813 0.25080911470905043 3.8334156002369553
-0.03847495999282266 -0.057582590278925656 2.7516098874703534
-0.523071450090148 0.2506828111624327 3.8330303632662397
-0.359908427457135 0.08988372036794355 3.4420706176927305
-0.5243018581377864 0.23757980406041404 3.841865691766419
-0.07387763415600193 -0.025315349808072145 2.5074982941740585
-0.1366784541727358 -0.23775437778046835 3.058088869032554
-0.1366784541727358 -0.23775437778046835 3.058088869032554
-0.34085183057785357 0.07636647471946521 3.3968703604152823
-0.5366493262779898 0.25460336402220834 3.8888952670139982
-0.3541853692911389 0.08678334519853188 3.429501065245364
-0.3127076268269548 0.05304217919234612 3.3280699751671285
-0.07262006946518941 -0.025454520863111004 2.5058333508545574
-0.5289735960384104 0.26100184306337826 3.8698987474105526
-0.5081883388495108 0.22614512026402386 3.8024870529511583
-0.5095490145029073 0.22792002658249705 3.8012487828155406
-0.3587738355733851 0.09165829409383405 3.441101479235621
-0.0953371622133917 -0.03008978962085894 2.511865834214554
-0.32895667043240706 0.06883032828536297 3.3686111600506243
-0.3025944708419261 0.046106701262718 3.3059045468360426
-0.5103964565780018 0.2243474213743395 3.8082199920577313
-0.5077200256872063 0.25272601945436957 3.8030354833334177
-0.5170077009251391 0.2381916138788608 3.8253467460747066
-0.3152316127655586 0.059080812651685514 3.336318805526128
-0.4337581006269874 0.15314004576377735 3.62798193893678
-0.42404597215765627 0.14467284164207592 3.604776420320574
-0.42404597215765627 0.14467284164207592 3.604776420320574
-0.540206161042877 0.2599468785192821 3.8956737618001753
-0.5371782042286588 0.2571399851609664 3.8772430944546175
-0.5050789234412769 0.2189548091353309 3.7973591528626303
-0.4221867130002039 0.14258898764401914 3.6010884419474833
-0.5256136774084562 0.2533902917599452 3.8501413701529064
-0.06946362172182964 -0.020978351982151294 2.5006791107888677
-0.5310737779031188 0.2578783960899471 3.859875994333062
-0.5380761879054847 0.268141385603209 3.8921432726568854
-0.3363881694118105 0.07519499102501254 3.3892882809260367
-0.3363881694118105 0.07519499102501254 3.3892882809260367
-0.5109518524757087 0.22717603994470578 3.814175506052888
-0.07066336644993014 -0.022443624052872767 2.5026837549715695
-0.5198846056545722 0.23436801916789857 3.836587096678415
-0.42258610965378873 0.14509383676159224 3.603924704226623
-0.08875822852740563 -0.028411063563710252 2.530922363270183
-0.5399846454274536 0.26531264516932096 3.896979066809064
-0.3244446284435756 0.06937045525413825 3.3671897349524347
-0.07648720150811265 -0.02552341082210922 2.511884091251406
-0.3007331418982345 0.04769141897249375 3.3085253436581175
-0.5372098686093565 0.27179245225450444 3.889869482731557
-0.0943657129462209 -0.030316018431806722 2.5099567982780586
-0.12674874874917214 -0.024989727614157794 2.553007955443853
-0.6902758147039681 0.4428516694885452 4.486700119073247
-0.5354238079796868 0.26311138399835227 3.8773209995363733
-0.4987866575530722 0.26004948888571733 3.7789562251629953
-0.49704411321421016 0.25989521898026685 3.7795810022521077
-0.355694345471583 0.09115586000621223 3.439014495755985
-0.13732497082049228 -0.26581283551271784 3.023328564651857
-0.3467367204710342 0.08570279988517664 3.4213410772020234
-0.7231666818578094 0.47735048358107235 4.575526022566633
-0.1375626177374249 -0.2647665809562717 3.0224852765456065
-0.35686081206537157 0.09375361333736788 3.4427420564385622
-0.5269558672015382 0.2665161412552556 3.857010429080165
-0.5095350090068096 0.2239967306052252 3.815409555042707
-0.11817268650641 -0.025602739166236024 2.5410632162606737
-0.11817268650641 -0.025602739166236024 2.5410632162606737
-0.5095350090068096 0.2239967306052252 3.815409555042707
-0.3318005009327397 0.07382753165204343 3.381872275711232
-0.5465697633568282 0.2585921271312396 3.912999923015399
-0.2953509445708667 0.04082432766857171 3.2919835391120174
-0.12948742166578256 -0.02523361014407592 2.5563873162600137
-0.1382403851375628 -0.2647695972693108 3.0216338351767456
-0.5453813857237831 0.26622898401772277 3.908231035964919
-0.07980141903743816 -0.026218954514212436 2.5290967424818294
-0.49727377811689194 0.2104253179007542 3.7874302755950446
-0.5427945383293369 0.2551513455134922 3.8964437110380383
-0.5206590924433195 0.22913765430076974 3.837815349929313
-0.4402179831604061 0.16035061444605095 3.650933709230209
-0.4708412268810431 0.18690844775154428 3.7221559152004726
-0.6648442481676327 0.40627823697456 4.404860224816313
-0.33089573323156196 0.07232999461603132 3.3798440829451506
-0.5409006064043358 0.2667441588730663 3.8925549758363713
-0.06887800863026432 -0.0194706644457191 2.500036414689955
-0.5297886730331349 0.2621889469591149 3.8649935091811063
-0.09554910611923426 -0.03044717894171681 2.5108739423459436
-0.5230221438652602 0.2710035216098282 3.8430434163176863
-0.30070910965034564 0.04782379307015194 3.307323650426109
-0.09136339176558152 -0.03138390236917209 2.4903252376039426
-0.5143537871807061 0.2305801426456662 3.8237404692834014
-0.5373802301310496 0.2639663004636181 3.8867842063254483
-0.07839561344576353 -0.027937931047104958 2.5102497868023343
-0.7066689132282868 0.440340407512148 4.515506900135048
-0.2041848417610729 -0.04685612853140807 2.7777084159664795
-0.16815435245439608 -0.22078125922380293 2.7460973060297516
-0.7088368629119197 0.4507816795637545 4.509456044786924
-0.16848907785031694 -0.2208560145094568 2.746713710984921
-0.1686452086602064 -0.22176808291689204 2.7480543896372036
-0.0737551135194937 -0.02430877695639489 2.5185170171164595
-0.07201871267500627 -0.024090673236138747 2.5054875955689853
-0.07201871267500627 -0.024090673236138747 2.5054875955689853
-0.07825595549548679 -0.028204633252445658 2.509536397050984
-0.6637359308594127 0.40361593930031814 4.386038422924563
-0.07805851438432782 -0.0277186662554658 2.5091417187587073
-0.07992390300030282 -0.02634072154311534 2.5279947188316103
-0.6065274141964535 0.3532732979424848 4.235709617385259
-0.6065274141964535 0.3532732979424848 4.235709617385259
-0.07606398817711923 -0.025694891819595993 2.5056481519356533
-0.169307433124282 -0.21170547832287162 2.753934564106629
-0.7025983770881371 0.4354290972591278 4.493226656907436
-0.078336574129995 -0.027987197973805875 2.5092722167757984
-0.07816943429262349 -0.026983164733120738 2.515136843103415
-0.061022558534918454 0.01072609975654337 2.5276180720191768
-0.5840317641079416 0.34168324674801287 4.1662937823095305
-0.17613029251896475 -0.21475770613454687 2.7808940682654697
-0.5524909560306531 0.31726306920137515 4.080225719177949
-0.14330313244914974 -0.11497008524447339 2.7501670905833513
-0.16298712245205674 -0.22170919361990715 2.856173862126571
-0.13844702178236565 -0.2632256688755331 3.0141106941397333
-0.16072700921043895 -0.23740450596402302 2.8603347646320487
-0.6926947247413093 0.4374895334387452 4.459887214106959
-0.2735673448311705 0.04295926276990423 3.056084439021409
-0.0779047482036383 -0.02777368310105049 2.508023622588107
-0.28038261966420036 0.04551442382812144 3.0730598816204684
-0.5845361330981254 0.33344708445837246 4.166364919340413
-0.5858697799037822 0.33645116938593445 4.164951045378594
-0.2892962556264148 0.059163276306137824 3.0957598863569644
-0.6690040726911308 0.41283912325791033 4.389433855299189
-0.5856494902351915 0.3351781225762955 4.166276392591922
-0.5856494902351915 0.3351781225762955 4.166276392591922
-0.28981082079770654 0.05543843162524536 3.098217534155743
-0.28981082079770654 0.05543843162524536 3.098217534155743
-0.28960632967722355 0.05805812752017279 3.0975334402486947
-0.2912066182344918 0.05722211877030587 3.102590361241279
-0.1397441793813697 -0.2627642310938797 3.014518949332103
-0.5718860086460761 0.3211349327386358 4.1271258270731135
-0.29445741100024253 0.059952171049959604 3.1100091158270473
-0.29380050271771924 0.0588229253328162 3.1091776578784933
-0.2965525187294361 0.06701183121644165 3.1142368415998303
-0.2914009596165572 0.05362902863801579 3.1048899451398615
-0.28800630065448585 0.06575093878462111 3.096538514091698
-0.5366051643907445 0.2929411164053442 4.025970440838387
-0.0686940458172697 -0.019317970415636754 2.492918586206354
-0.07421462426811458 -0.025559081757889995 2.5094285129824514
-0.29486642064328306 0.05891080805583475 3.1138427803646116
-0.09805419998573102 -0.03216357513064603 2.507403582668501
-0.2898332473315479 0.062175076204993886 3.1028307973775955
-0.07453250876661835 -0.02487743109294013 2.5174668945823733
-0.29365375998992815 0.05823168446359742 3.112822440762319
-0.07453250876661835 -0.02487743109294013 2.5174668945823733
-0.30010538041045265 0.06060191831919611 3.126560765763606
-0.5577589104621872 0.30893934256267164 4.083911852682545
-0.2993797277236988 0.05935191577028705 3.1252548774175644
-0.5582905433913127 0.30710418681480406 4.082649081572164
-0.5211188682440652 0.2790737167231389 3.9799270099056394
-0.1641296729074022 -0.0617695910768714 2.8561954525185955
-0.1658391790248909 -0.061234385193740574 2.8599716410035243
-0.29672258608287144 0.06680002182928943 3.119200460261045
-0.2646532929482351 0.044074841217127986 3.0541428204611933
-0.07828069538540829 -0.02829444197532232 2.50762688680201
-0.07828069538540829 -0.02829444197532232 2.50762688680201
-0.5203822012397334 0.27614712576304573 3.975698269714608
-0.5203822012397334 0.27614712576304573 3.975698269714608
-0.49852399459227087 0.26088087683364497 3.9170110009528623
-0.11124439634542686 -0.030367523865280674 2.5161711962824302
-0.3009079159595799 0.05952065717745394 3.130690871318478
-0.29837048761470647 0.07158131872213971 3.1236406998784827
-0.5902003165853458 0.3303044418142946 4.164106735642458
-0.5367004212140177 0.2915255447136705 4.015961474440839
-0.29789391714301067 0.06928028930105143 3.123199798041564
-0.6761079427635659 0.4148792574563861 4.389925763707021
-0.4823351357443076 0.24450752876785029 3.869795866695802
-0.3013788995682855 0.05797515823180729 3.1328931774247066
-0.5193923960701202 0.275297150025552 3.966788844881837
-0.6278147498140083 0.36395609394931877 4.254603413836334
-0.5038199776794322 0.26117807246268016 3.924459710347092
-0.07801976925140498 -0.028272480850836734 2.506965679060186
-0.5533219186770131 0.3003437193599762 4.057532395030576
-0.5346912467872673 0.28470288284513673 4.0090776830339605
-0.08024342119762468 -0.02646663819359861 2.525654369954603
-0.3013433753806879 0.061830353564052136 3.1326544804602894
-0.5501527481774644 0.29611480437663673 4.047325829361755
-0.3015331481343248 0.06867427132846425 3.1322011956375655
-0.3015331481343248 0.06867427132846425 3.1322011956375655
-0.30114886681299813 0.05884102007731071 3.1329800121514224
-0.5451573854015485 0.28977642241847335 4.029794950305396
-0.5441339014736325 0.2871170782247741 4.03101498773372
-0.30114886681299813 0.05884102007731071 3.1329800121514224
-0.5488649380217121 0.292949291220219 4.0369824510182895
-0.547734292099506 0.29044958667375215 4.038183780091111
-0.29574053556988616 0.07345779502641898 3.119717870687043
-0.29574053556988616 0.07345779502641898 3.119717870687043
-0.07831829796516206 -0.026993606416136396 2.516341091493319
-0.30329947514111016 0.06228752574797898 3.137528665964972
-0.30246799081585124 0.058817121176672316 3.1370391754449556
-0.30193859213417634 0.06104923519438344 3.135016938083226
-0.5670544992286641 0.3071269901411115 4.086818565774128
-0.2999293129447 0.07198466007776709 3.1298630212230254
-0.45692409375950416 0.21732918675745544 3.7896438551553127
-0.5969137282436371 0.32921077052675574 4.163188947566437
-0.07860360086261263 -0.027353009766479176 2.516954181632909
-0.30059800817661203 0.061857517320962715 3.1325667241292567
-0.49382384161378984 0.2457229165007707 3.882046469044954
-0.5810875587986123 0.31108541728068134 4.116043041141951
-0.5185045003685047 0.262878471831842 3.9516983591392427
-0.6140255329065959 0.33707765755272556 4.198971215447746
-0.44581271907317804 0.20571023450621553 3.756110437584052
-0.16240434059547731 -0.22668387294987963 2.8845469770723553
-0.48956825416583033 0.24251312669863906 3.8703204029121587
-0.2996234809576864 0.07506519185802503 3.129803985666789
-0.47900014634360444 0.23186002263020963 3.8415590346920085
-0.30294765465851925 0.06193579131624127 3.1392048995294997
-0.50653506834616 0.2517822444576974 3.915746759270646
-0.30294765465851925 0.06193579131624127 3.1392048995294997
-0.4430831288626825 0.20669798665380332 3.744986627879435
-0.30300012886642 0.06344966446466509 3.139373244199788
-0.44286380733213254 0.20483854913508856 3.7453778078376874
-0.0707836484390705 -0.03000250446988473 2.471785945756195
-0.3010797778861367 0.0699894970938665 3.13501809215548
-0.0776109470056498 -0.028134959695996165 2.505547164626839
-0.6112823394202783 0.33416995772947067 4.189404718142551
-0.3080612115574046 0.06575883264124481 3.1514475400848316
-0.3055656148539144 0.07000934149386191 3.1457634555912017
-0.30679819446073064 0.06441650246071282 3.149252027213306
-0.30679819446073064 0.06441650246071282 3.149252027213306
-0.6521621543923376 0.3751711071620208 4.284230086110529
-0.6521621543923376 0.3751711071620208 4.284230086110529
-0.3053585862119518 0.07170240123330984 3.1463124709410715
-0.3053585862119518 0.07170240123330984 3.1463124709410715
-0.39469536384471543 0.16278264855822197 3.607859132892722
-0.15910366343104554 -0.23878531186440255 2.881864695687033
-0.3949015047898461 0.16044487758886553 3.606866399000092
-0.14283362906458602 -0.25806281131873765 2.9984473102214855
-0.14283362906458602 -0.25806281131873765 2.9984473102214855
-0.14546140146274675 -0.24760464358451173 3.0034313308385983
-0.6003842254058974 0.320259613270904 4.1407247500050675
-0.592457871684969 0.3151354530390277 4.119692429512852
-0.6347290029819467 0.3519113715992696 4.228798837863754
-0.3059413937368322 0.06377278945991292 3.1500966899165377
-0.6347290029819467 0.3519113715992696 4.228798837863754
-0.4002961725973215 0.16441165828183368 3.6188829542900613
-0.3067645897671344 0.07354696411338206 3.1508819420446175
-0.1457972465200807 -0.2438720518462858 3.002936890939401
-0.07852890381067502 -0.026641798325519845 2.519096934371972
-0.07852890381067502 -0.026641798325519845 2.519096934371972
-0.279826455093186 0.06358416886210627 3.0940247171357056
-0.15915923767109624 -0.24064776910160604 2.8830700079358085
-0.3080110455962162 0.07545136115626132 3.153371594463495
-0.15925044344984515 -0.0341807037391328 2.5798848800914547
-0.31026253597656317 0.07168971140062182 3.1593084118625567
-0.624195948440499 0.34629180299570184 4.200334193068746
-0.3130505042761442 0.07328932093091012 3.165779476093389
-0.3101462958979609 0.07940940853375339 3.1589294753110675
-0.4703205482642799 0.21181834270196587 3.797022756377902
-0.617797228976587 0.3555085327219286 4.180411281416992
-0.617797228976587 0.3555085327219286 4.180411281416992
-0.3075527360891686 0.08116306667739404 3.1530875829024363
-0.16665044383004618 -0.06268674951287156 2.8707124386768577
-0.30842416758916874 0.07950521853785095 3.1556416865889894
-0.30842416758916874 0.07950521853785095 3.1556416865889894
-0.3095086655979148 0.07948803812634653 3.158780608360488
-0.31593108240182477 0.07532394297085801 3.175969348876976
-0.31141165333089926 0.08568296241955742 3.165493324153216
-0.4002911442969941 0.160235031049349 3.614253810122296
-0.47535492146905794 0.21535481839581225 3.8091506412384835
-0.3086492130639025 0.08317424013754074 3.160110485989239
-0.31091670383677644 0.08535150606293244 3.164736570388605
-0.3092878323126514 0.08350675869301749 3.1615041966882482
-0.3092878323126514 0.08350675869301749 3.1615041966882482
-0.3217640271325956 0.08147229768396147 3.1901913750106976
-0.38903557070519096 0.15123083946370555 3.582745560968939
-0.31453893034645347 0.06366215160217699 3.1766287617925713
-0.3170237339887891 0.08008463183701996 3.1805642601937087
-0.315907430022808 0.06456313624656673 3.180941797198729
-0.31586604866570606 0.06788113863019933 3.1797749990616166
-0.3142488382742065 0.06424678648794371 3.1773122315518876
-0.32023467358703206 0.07272988831858253 3.1897017376445533
-0.28805358759253175 0.09056790780137076 3.115999425586264
-0.32064159634619915 0.07555585592879524 3.190794259804802
-0.5958577429258891 0.3217020691871076 4.1181881823212025
-0.4212597715315349 0.17483758801155805 3.6646178602331423
-0.31809869601501206 0.0661608642976771 3.1882944585805397
-0.28456768565667906 0.09201285281112555 3.109468076350469
-0.31308994989495537 0.06075174133108712 3.179036297736402
-0.2901371688235569 0.09372593781252678 3.122510050825018
-0.31727264545403217 0.06608889761870114 3.1871087255409694
-0.3230005068847835 0.07477305472710837 3.1984354942289968
-0.29650977160232395 0.0953380205301253 3.136465056738678
-0.3200246358802615 0.08245980403114717 3.1910740799075707
-0.3275018071464688 0.08540278069963543 3.2074262982030946
-0.3275018071464688 0.08540278069963543 3.2074262982030946
-0.3070553936061814 0.09245777303496942 3.1611901653717114
-0.29653030021269844 0.09376370412933585 3.137996588699505
-0.3063147080425713 0.05438567443836755 3.1672895180036194
-0.3252569766286307 0.07862380037726759 3.2049611646726723
-0.32733235937951 0.07697301183596629 3.2099689518457253
-0.32742634935269777 0.07499736721237014 3.2117496247734247
-0.07307121107805031 -0.0266509605512798 2.495470940652861
-0.3291378190329037 0.08215693587427043 3.2152999168998893
-0.330281430481258 0.08338451790365879 3.2182212635691574
-0.3115770267077244 0.05887810614277699 3.180404769294863
-0.32917995713702203 0.0896159643105056 3.2158148053472306
-0.29401922065661235 0.09456563703509298 3.1366016754366335
-0.30991241188356305 0.05730596923243472 3.1783109593076797
-0.4951042680364724 0.22781597916889149 3.854930202262848
-0.2891914921853904 0.1009244072263199 3.126132697212582
-0.3330941286605376 0.08661204617048192 3.2273851790891808
-0.26075182387751195 0.09546264690600853 3.0637208936593874
-0.33148730982169505 0.08795068943142569 3.2239503549125454
-0.4423979989510176 0.18746019327192595 3.7165553318850084
-0.31453425917267047 0.06015737631047195 3.1896858607262435
-0.3292211775764811 0.0965010672060581 3.2176939371488635
-0.30869038409260335 0.05493898848569678 3.179754766642216
-0.30869038409260335 0.05493898848569678 3.179754766642216
-0.07470338643846196 -0.02720855102721492 2.4970208612463782
-0.6047872258559805 0.3414874558183177 4.132065430748472
-0.6047872258559805 0.3414874558183177 4.132065430748472
-0.2775398723995892 0.10281333906290244 3.102933016186207
-0.2775398723995892 0.10281333906290244 3.102933016186207
-0.33538863519581175 0.09608026110533374 3.2350787174464033
-0.311376289317154 0.055423307274866 3.1879720536965572
-0.29212095617170947 0.10436095949222578 3.1368213889802417
-0.3128397057810401 0.059213337859438865 3.1907291953699906
-0.07395761683431043 -0.0272136768682854 2.4957042658202035
-0.3100170736446347 0.0540149612435029 3.1870219104412407
-0.4067250436681888 0.1593303248470298 3.6214400950820473
-0.61226172628132 0.3317915039919669 4.1515377481236
-0.33596515736421506 0.0790085761703205 3.2410348375058917
-0.3409424338224128 0.09036176205056069 3.251166478720998
-0.32185824333161134 0.06498795261956385 3.212227921082688
-0.3203522358766921 0.06338991733859924 3.2092753433655474
-0.0749916650529164 -0.027333252375012045 2.4968886533169647
-0.3266888709161873 0.06329034297598737 3.2252306982452454
-0.3404895373603369 0.08441704751950778 3.252764743429405
-0.32923610656379376 0.10662725461627401 3.223971268144155
-0.32965652880528995 0.10813925903822781 3.226709788223691
-0.32571799957108316 0.06556027771415239 3.223890004499876
-0.07407413230799317 -0.02747773394624118 2.495378749196613
-0.5947217199927943 0.3114308204037892 4.105089937417318
-0.33978883696716117 0.10480998380828904 3.2497201123799075
-0.32037078735262997 0.06310207950021224 3.212260416467889
-0.4564501013170591 0.19255959559225844 3.7475786405213376
-0.3348701766403153 0.10896275774236502 3.2400826054475296
-0.4689706213571864 0.20143458423026978 3.778683414947163
-0.07397790547694837 -0.02734383377773665 2.494687955305013
-0.3231727969482049 0.060651406042151045 3.223525765643713
-0.3305199738483792 0.06944408726409006 3.2388325901655572
-0.31690825551322094 0.05826983479819124 3.2088322854208706
-0.33551055126610546 0.07301799833273526 3.2491543086546
-0.3298854519367743 0.0681772150559194 3.2372039652010027
-0.32858512778387544 0.06570174074665665 3.234931490252056
-0.3492029103367363 0.09564168522325245 3.277996676013347
-0.3393282881152315 0.11098747443934634 3.254358710219136
-0.3451361047310992 0.10785304292073125 3.2675655825796173
-0.3391160620707725 0.0772384232082363 3.2588090181879084
-0.3374532676259594 0.07492419025557198 3.256175978162312
-0.3423659564758856 0.07844689429752762 3.267651834368613
-0.2976014261496009 0.1138577824339217 3.159076321155588
-0.32579813433326066 0.06363556953510846 3.2316290031659327
-0.07521612270134964 -0.0275606379470097 2.49603002800944
-0.10771537051385888 -0.02985796905485237 2.514125040047917
-0.10771537051385888 -0.02985796905485237 2.514125040047917
-0.31537797266402295 0.05617644464548454 3.2097149089996138
-0.31533013372139196 0.05559546458772986 3.2100915554226783
-0.30620106356520294 0.11302300566899191 3.1797787882203354
-0.3228453967500145 0.09245518545164871 3.402405850590532
-0.3428173333765941 0.11415531778811232 3.2653810169426847
-0.3320914866382919 0.06969521860836166 3.246516639708949
-0.3233154850281607 0.05995316042474352 3.2293549424487336
-0.30742500901093867 0.08169324668233698 3.362681308583712
-0.3368577784235975 0.07600705611868797 3.256785143917793
-0.34501431297689084 0.12310972832097848 3.27052549640112
-0.34501431297689084 0.12310972832097848 3.27052549640112
-0.3290077234119392 0.11787675214803355 3.233638996056936
-0.3544576946692745 0.09582231359609909 3.2959278604336815
-0.3520389585785214 0.09186686566493545 3.291373618743398
-0.31864589166818896 0.05598349438193037 3.2218350931209123
-0.31864589166818896 0.05598349438193037 3.2218350931209123
-0.3522819083554725 0.09140647172440113 3.2924878517137683
-0.35167649097296766 0.09075506200467828 3.291906006605203
-0.3126992544660867 0.12094918878577972 3.1972097522898064
-0.3126992544660867 0.12094918878577972 3.1972097522898064
-0.3534492883563986 0.09280284823660438 3.2960788194853015
-0.3435338174975657 0.0854380018410736 3.2762768999300977
-0.2837983742635866 0.11559832771457502 3.134292447896797
-0.35960813947080517 0.09928909989974873 3.3121709162399613
-0.2967361922653164 0.12021775729721396 3.1637662883322424
-0.577363457922096 0.3087939782498562 4.047002679469293
-0.2967361922653164 0.12021775729721396 3.1637662883322424
-0.3359737995638389 0.12429174676401109 3.2561922176700766
-0.3335272515447161 0.06437279067981423 3.2594675549916587
-0.2814506029437561 0.11586452225728966 3.129961376634607
-0.2814506029437561 0.11586452225728966 3.129961376634607
-0.06958574280977961 -0.023241875089203685 2.486855065445621
-0.3606800194628901 0.09763434012598657 3.3165864055354697
-0.4815016893031679 0.21438477064955355 3.8059767139963845
-0.3613087456453965 0.0946344648882997 3.3201080347144423
-0.3290332503370726 0.06451075650766216 3.2516791778045753
-0.321737707324936 0.1252968231111388 3.225376369956979
-0.3776806294085349 0.09811055335766876 3.3583175959540976
-0.39943572788631326 0.14748927288362587 3.596132642269787
-0.3996825993337242 0.14848053489639657 3.595683765628229
-0.32976440365471626 0.06225344507926347 3.256495246859657
-0.36645167959780944 0.12215905835151825 3.332199923887905
-0.36599199901959684 0.09957637500272194 3.336964573768157
-0.375613429562858 0.10870978380439206 3.3583862722851507
-0.309969801221421 0.12734073616012065 3.203989340585481
-0.36521869324583084 0.12904816177316708 3.3331663630143593
-0.36764564932050137 0.1026725646268619 3.3435124136191074
-0.34946118176496754 0.07873254054103586 3.304704094959084
-0.32728556932247144 0.0607462786540812 3.258299559992832
-0.33085832105686097 0.13076306163694298 3.2547128986786786
-0.327429965240932 0.09490289352326756 3.4103446875262238
-0.15816263731131733 -0.03294164861848355 2.5805868562734195
-0.3704028325767621 0.0996924221501394 3.3534206702808254
-0.37071862347139967 0.09950712749268263 3.354941938496122
-0.37109686286859617 0.09831256070865177 3.3566182476755255
-0.3435117279126146 0.10850500622111842 3.450696448072463
-0.2975330304623163 0.12523909134059752 3.180926068320791
-0.38362321141593125 0.12143485625823244 3.384559550922097
-0.32104524742361995 0.13130819951947328 3.235482549280968
-0.29559304252077745 0.12679594701212663 3.1766803588946955
-0.2937638335149963 0.1269744791487897 3.1723098872164655
-0.3100431473625522 0.08281919385036003 3.36520659209432
-0.4739602527475111 0.2046442505028721 3.782716221977698
-0.3803605076257658 0.10488759020676987 3.380139364655403
-0.4512227311273015 0.18405583024842537 3.725262169572857
-0.32824181923277923 0.0623115686253035 3.26597381572326
-0.37888574030770034 0.10874808399428564 3.3780859304973254
-0.3777108305145324 0.10646194194243033 3.3759807164028244
-0.31637440063885014 0.1318140819260109 3.2285252600657515
-0.3747890152504823 0.10203431767428672 3.3714140302543236
-0.08514237539716762 -0.03095027899190702 2.4858391722565094
-0.08514237539716762 -0.03095027899190702 2.4858391722565094
-0.3472922250138786 0.07387422224621748 3.3117692244390393
-0.37838294444075693 0.1047448013288707 3.380088945725621
-0.37199934451296984 0.09731460830526821 3.3666046260628715
-0.5082691863499935 0.2292385392946431 3.867738965000354
-0.3775867539815941 0.10197645674054381 3.380933749633676
-0.4928022707255263 0.21630088990867483 3.826124421475969
-0.33319355050927657 0.0976964076607441 3.4231857400445502
-0.3770900771740544 0.1032139955677022 3.3797815080441094
-0.353182434577632 0.14213304555068496 3.3173425888942503
-0.4890698013283732 0.21510693517740379 3.8186552756504573
-0.5627333410597313 0.31777767910099947 4.004415223797331
-0.33786675824663126 0.06602610130709913 3.2942556680843436
-0.3444272507285168 0.07175284961835653 3.30912357026378
-0.3444272507285168 0.07175284961835653 3.30912357026378
-0.3733817526317282 0.09961262204095135 3.37327972408601
-0.37345160452096193 0.09775656906774319 3.3741886607742044
-0.37897717759476957 0.10435187030172592 3.385803081333089
-0.359841384917025 0.08471990703737356 3.3445799907731817
-0.38635912383709997 0.10791742422806117 3.4049360172974215
-0.38162018300944345 0.10433560014297738 3.394386891293142
-0.3383013043725612 0.0990666688549249 3.4350011606043833
-0.0914824158624968 -0.0031539713539795637 2.7986968688486558
-0.08749789269766839 -0.029031112404510402 2.510308298395251
-0.3890162496837179 0.11542282283331377 3.4105433880519995
-0.390599219816282 0.14318283497055043 3.411710795450984
-0.34804267992208204 0.07504017678349394 3.320482615934321
-0.3706134294943884 0.09742392684951848 3.3708421682574006
-0.40016361196360156 0.14285071697215146 3.4333953032180324
-0.5799701480440121 0.3097825345755214 4.044494187773839
-0.3747316234660287 0.15278175811221248 3.3747420424903276
-0.3906329429065409 0.1172766249518824 3.4164092610052497
-0.42970464303809347 0.16661377548138234 3.6673368235517816
-0.5447211981875967 0.26079968877298687 3.9574362908908145
-0.3372874059244877 0.06562546356473722 3.3000463253443617
-0.4040475791260301 0.13585293340772933 3.4490401120364833
-0.48700103082890583 0.20983905909315154 3.810425122556142
-0.3464606274594879 0.10677058124658056 3.4541393774819524
-0.38839570926323774 0.11621157604049276 3.414693255277975
-0.3827777055060452 0.10332840142724568 3.403849795715029
-0.40608950258038673 0.15072672508395113 3.453247426775804
-0.40608950258038673 0.15072672508395113 3.453247426775804
-0.37888834425050033 0.1552523740681916 3.390508065732295
-0.38410706535329925 0.10378753414761069 3.4100823388592256
-0.3945916827494758 0.12061093052354065 3.432700043776756
-0.3100167458737122 0.05038859412067989 3.243485587026019
-0.37561337280496593 0.12814798131722485 3.526610716364928
-0.37561337280496593 0.12814798131722485 3.526610716364928
-0.4120107297820648 0.14645558526235403 3.478094501516167
-0.3299920022201349 0.14714571563527193 3.275581874197462
-0.4051490625907994 0.15187237834673017 3.456604042746321
-0.4099075778521862 0.13726345354382263 3.475998000315069
-0.39812973470764546 0.12285326890287149 3.451238084701061
-0.41191061560385944 0.14657037678440787 3.475150274000048
-0.41191061560385944 0.14657037678440787 3.475150274000048
-0.3845954717469774 0.15957085887246697 3.406221113707142
-0.38690287758366093 0.15985832622967644 3.415364763838423
-0.38006978323698487 0.1624391410318365 3.400907601614975
-0.34069346718708937 0.09761208326335108 3.437273450801564
-0.3927849990620444 0.1136620787627678 3.4448779550878443
-0.4169340981193466 0.15293726880184058 3.5021374446215865
-0.42443908718471485 0.16094619066883362 3.510181193734017
-0.42926928074328086 0.1610988648472619 3.5299070416926446
-0.31308661535435456 0.14577008913955297 3.244037370364518
-0.5738117011819661 0.31483033348708434 4.01961647012876
-0.3976037062860954 0.11581805070348239 3.454282329662614
-0.32046081968182877 0.05425356655959921 3.278378843649623
-0.40215544580150786 0.16560984962103512 3.457104011696978
-0.36086876848266175 0.16258726429077744 3.357603157859
-0.40171490002520926 0.1184648509856629 3.464611213604261
-0.38680561547592307 0.16809486938468024 3.42340523471762
-0.3672467753334282 0.1623372634781975 3.37431827036619
-0.5589458642117423 0.29554338222236104 3.987924480523961
-0.39548952802559634 0.11539828750199413 3.4562313806890486
-0.3964665004881331 0.11365493587833365 3.4536794467636605
-0.11187885816078542 -0.027360679675663614 2.528756172967584
-0.3996978012178114 0.1165244436436994 3.4611604167575316
-0.3996978012178114 0.1165244436436994 3.4611604167575316
-0.4267024630147789 0.15618772228274325 3.524927071302304
-0.42161604473784586 0.15068055940421052 3.5107618440770234
-0.46754784073293393 0.19583947216986922 3.7561982314722364
-0.5522452784175962 0.30750559077487116 3.961876428291599
-0.42015493327973524 0.1525468625278952 3.5141175192393797
-0.39593400673681167 0.17655982532966338 3.446615224735231
-0.3784942944590188 0.16836591197243922 3.402308207328663
-0.3121114679971484 0.08268148598902052 3.362550488918989
-0.34865512125611264 0.07241191893284576 3.346572335460287
-0.40103057880880705 0.1158138330051895 3.4668611296522607
-0.3802893589453591 0.13004842861171978 3.5434446609186034
-0.38146061593603386 0.12936861861068308 3.5389516689603298
-0.3328210340313287 0.07216555898946311 3.3800205488402426
-0.07991084668277357 -0.026975984757854923 2.521975259958876
-0.072610803538934 -0.024376586531392297 2.5081672313385512
-0.3030011155978503 0.055820367921381425 3.3151433453604544
-0.07242720753465187 -0.024474381271890357 2.5079025084454822
-0.3609581548922236 0.09508732616475876 3.449272813913029
-0.35215465376496635 0.08312578641497524 3.4030893564322824
-0.30824262697871263 0.05731973186329963 3.1738897109797346
-0.45399907928045247 0.22116980257875754 3.791774432429219
-0.3775411435765937 0.10356534825352308 3.4639493968239488
-0.4124300151901296 0.17227280605765766 3.486232971974098
-0.3456117444676127 0.09278140248584224 3.429587205396377
-0.3581181476854567 0.16027726591402966 3.3563226403272286
-0.521240262999133 0.27926558560491216 3.856579564301328
-0.328218715439892 0.06855753414562323 3.3702564212958497
-0.42211601631025936 0.16774313150427977 3.506762220385725
-0.07276417955961442 -0.02436205286736215 2.511907386927337
-0.3064035313517035 0.054833680671212255 3.317838315250979
-0.4552848813014583 0.17622586530101564 3.683523551673522
-0.29406785902495114 0.07412050760735542 3.1167962328321384
-0.3905414526253642 0.10993324022511551 3.4410830957420124
-0.326441549292128 0.09631700532484318 3.2119315955110883
-0.43039474125013377 0.16168223315438443 3.534145006740195
-0.48846884535288104 0.27977830821561034 3.7954760289781713
-0.4068133320018445 0.1477062878965666 3.6040029250134533
-0.2809932857323439 0.09823510045567929 3.245728287810778
-0.5754684447540709 0.2864637863532719 3.998198524821921
-0.5754684447540709 0.2864637863532719 3.998198524821921
-0.6822732902536012 0.4191604182231572 4.449224924772819
-0.3065050288912473 0.06030981338264144 3.147885885207704
-0.06577445493005436 -0.029382178284866403 2.455001477066483
-0.3051740950180611 0.07056064712033791 3.1432850144309183
-0.06109780727384117 0.009109651961593962 2.5269533930860675
-0.060476139009472935 0.010797279558655764 2.52694399071737
-0.16139455082550114 -0.23758684954156808 2.8618282055312494
-0.3002579672172939 0.042634811551511734 3.283800188660489
-0.6789614951749616 0.4159728272478963 4.414981634631562
-0.06829012855416049 -0.01907162049980746 2.4928277240952483
-0.28905476509930833 0.053243042195811545 3.095851583325114
-0.4058752470805888 0.12647756398306922 3.502293307986356
-0.29076008684126364 0.05551345627295476 3.102536851176102
-0.3220064090462099 0.08169650911182086 3.3817807760457708
-0.3259635787878357 0.08030409705087858 3.3855495603118717
-0.3894207444645441 0.19044591105603936 3.462162998241902
-0.4390168805004274 0.16308883963526574 3.6584489448998045
-0.06934997277189833 -0.03520064962714051 2.488767594297807
-0.49470025091517494 0.21182541603917077 3.805785740523058
-0.42470654693896015 0.1553169141115732 3.634303943365128
-0.4193234783357286 0.14954608948087164 3.614448313575702
-0.044163276444027344 -0.14866090535252194 2.6103625002952806
-0.43918075639664184 0.15208362323037344 3.592527603660391
-0.40497570892566964 0.13636701438793575 3.575555248802139
-0.3140696548125748 0.05024368349237853 3.298163841475233
-0.3002527145622728 0.04208625578903388 3.2698255630579713
-0.3140696548125748 0.05024368349237853 3.298163841475233
-0.07740866216878807 -0.030495231787869143 2.492895468821487
-0.42348502414461 0.13870547697990185 3.582901376915943
-0.459228385303805 0.19447609455630194 3.6325889581027715
-0.42995535965576726 0.14333721315962603 3.5678731718126366
-0.4435853152087055 0.19952103290106174 3.5919495595472877
-0.09167010081734342 -0.039453173413236696 2.506970029422765
-0.06885675918682763 -0.022020976730062296 2.524627981643476
-0.14253567422383062 -0.2575320721896085 3.0001314493269433
-0.3323312428060875 0.08328297655497907 3.4006217704280988
-0.3765817898192475 0.12105299246408416 3.514909278755878
-0.4194515096581795 0.19600264827313613 3.5294783439725905
-0.3845180539769866 0.19157538623712875 3.4591728484953084
-0.45049708855596754 0.17268281677415762 3.6836848695965845
-0.4866036489384146 0.20316693104307054 3.717498578154183
-0.06923496398983237 -0.02154589402882029 2.5244912696378554
-0.29929697376862074 0.053102487757500774 3.310624283015927
-0.4502483293386459 0.17720302441866218 3.6907376302475785
-0.37576533854273153 0.0976770773087493 3.3742643498531772
-0.0735776594735133 -0.02583614595649611 2.505345307167504
-0.37279706916768796 0.09891691478588226 3.3659420461116087
-0.37812856275599066 0.10764126455078303 3.3751665958228205
-0.18602357993679883 -0.06915631645577922 2.6586326751076803
-0.39178676477381097 0.13445989928610894 3.4078386253828765
-0.33440135425434975 0.08002951464796135 3.397387789136445
-0.07129290376737214 -0.030164448425391968 2.4727615906035965
-0.1410684763569288 -0.2536947893391614 2.9935780956809714
-0.369447505923039 0.13421102205933727 3.347990296578476
-0.14650121445152767 -0.027414304065289132 2.574043996305088
-0.4051667524256881 0.16968569296630553 3.6335835855671132
-0.5374169675956919 0.24564300033916148 3.8599171036703908
-0.09420486949289043 -0.029964130821775826 2.4994792362231597
-0.3759032318641184 0.10656580323293932 3.366253670396202
-0.3779957752997037 0.11046491868634216 3.369981765593261
-0.3779957752997037 0.11046491868634216 3.369981765593261
-0.5875052702644503 0.302659600829729 4.071617812908548
-0.3216188771673688 0.056032156546551595 3.2596761272849832
-0.06537450270804661 -0.02553614713747292 2.4617637076250136
-0.32145449280770705 0.05622319861075353 3.3446483894295542
-0.42497651835663086 0.14471235832410026 3.5962299540142246
-0.5935220608795377 0.3209469592113165 4.079139807955696
-0.3761912172035694 0.09411724182640817 3.4206224191806256
-0.36185165431045835 0.12310642117026328 3.3220093490028124
-0.0758643251700198 -0.027667408081123442 2.4958205062693284
-0.5499943353121844 0.26515456688759825 3.9575000931488855
-0.5551064929623674 0.31722857766968254 3.9757065987034026
-0.07020357931110846 -0.02185090192796063 2.5010168935520194
-0.5265739214984916 0.31815382408390014 3.9308803509182626
-0.3164994238020603 0.0538339630032399 3.2512503185032307
-0.0773112542045493 -0.027246309042270347 2.503193768106713
-0.06138646099623079 -0.04342684082799438 2.474230082822346
-0.37440202234467507 0.11552753520568686 3.3499764523210707
-0.5559027196603042 0.2687750822239696 3.972748956229747
-0.42486142202166205 0.14542106449461398 3.596760326044045
-0.1458708340886281 -0.25014123743992583 3.0018181335370304
-0.31823863457255835 0.07109356290216003 3.180511703935271
-0.32157908343707425 0.05725508417670529 3.236247370810264
-0.06876181960737665 -0.0188410597762267 2.4987601200171925
-0.31224953573202424 0.06549000959987308 3.168710922079981
-0.37810762660155706 0.15359360218013854 3.385235128537019
-0.29800321996916956 0.05013506595729224 3.30517877359621
-0.06983035586653515 -0.023612132149466714 2.4872401481667055
-0.6510047982930319 0.3276051196743793 4.24040882565095
-0.45935270570898457 0.19942053578605756 3.766026663766997
-0.09913013757134152 -0.028090158055546342 2.5259097742331402
-0.3076221851416996 0.08841062276330074 3.156987135038664
-0.5054017217455118 0.24519753325753207 3.7869288091230984
-0.38078873574045546 0.11557326919992254 3.313842803876599
-0.4102321065274744 0.15066468757219995 3.4647542495032684
-0.07109361032319918 -0.023021405019496607 2.5031803143437577
-0.3530175762826827 0.08553274632662183 3.4241881816582116
-0.30716936812475676 0.09007563900329874 3.156926513478931
-0.38274150005130425 0.15719843807722178 3.398550308578062
-0.39993284569525195 0.15159669827596378 3.4424657079319436
-0.35917824605863036 0.09169910747765189 3.306040175815077
-0.43986303838720625 0.17275069231077905 3.5593575790224112
-0.4090845340747738 0.15346285122726072 3.466319228364767
-0.43986303838720625 0.17275069231077905 3.5593575790224112
-0.12350322149018843 -0.26672051747733255 3.1080033852279323
-0.12183149008881505 -0.2714633241141702 3.099097932549516
-0.5320879538304034 0.25359229404270367 3.8557080901389957
-0.5185850335486988 0.23593669000862583 3.8244856465255537
-0.378339896653384 0.15785468778701126 3.391397582239169
-0.3279235359907953 0.0734822756465745 3.378118057723569
-0.5174635478436187 0.24409632639120146 3.820352565020787
-0.3600254245611988 0.09777587376555943 3.4546394092449617
-0.38581163687434783 0.14777546155432347 3.5736979495690666
-0.3845669640218164 0.1135784951529546 3.523454582756573
-0.06662048455130509 -0.026250161123052056 2.467427933828136
-0.3204553615276888 0.08510616371074756 3.190146841534337
-0.3353288362103985 0.10916194879248399 3.2436469656565228
-0.40381559557041524 0.14506811515195447 3.592695574679261
-0.14534570523635615 -0.029084429464035447 2.568114122837062
-0.07272822497513495 -0.02427467070995034 2.518429758771603
-0.2976438978261088 0.11012867215069044 3.157299557313837
-0.4158655419799372 0.14782753116809455 3.4948939232397604
-0.40381559557041524 0.14506811515195447 3.592695574679261
-0.4198597281842132 0.1516130369778035 3.4939972740279535
-0.4184497494713548 0.15469110848635173 3.498278916559949
-0.318211545261077 0.11207205832882637 3.202993412926579
-0.33933520517497884 0.07495464418846762 3.393508710171183
0.06964536180228302 -0.1044701186798192 2.3213036722935874
-0.6422015003728221 0.40918869456480994 4.364102262392793
-0.42284627150739507 0.1686265507303333 3.6631697958775056
-0.07449767607946498 -0.03235104920185044 2.4691964943089078
-0.07291413069077185 -0.0263692904631581 2.4954687753799685
-0.4176915858418459 0.222784498940661 3.5693764851570617
-0.411169148811629 0.13406518339580253 3.5706001105807283
-0.08727261630212269 -0.0315292985203633 2.485378802763113
-0.11423078513187533 -0.025870416908021956 2.5369262098280148
