ply
format ascii 1.0
element vertex 1700
property float x
property float y
property float z
end_header
-0.829104 3.521192 4.794216
-0.815422 2.551509 4.727946
-0.827175 3.953835 4.824296
-0.810713 2.325100 4.746797
-0.809087 3.212889 4.724833
-0.845599 5.147979 4.945803
-0.831135 4.745244 4.897644
-0.773659 3.138522 4.640486
-0.773659 3.138522 4.640486
-0.770204 2.957844 4.643535
-0.775863 3.555884 4.683290
-0.775863 3.555884 4.683290
-0.775863 3.555884 4.683290
-0.774584 3.660574 4.691325
-0.768913 3.590638 4.669820
-0.759015 2.775025 4.625688
-0.768684 4.060369 4.703472
-0.760082 3.850211 4.660655
-0.746220 3.135151 4.591911
-0.766725 4.339477 4.748792
-0.738369 2.560752 4.581577
-0.732677 2.260354 4.550079
-0.745975 3.397953 4.619077
-0.733891 2.900140 4.562752
-0.733331 3.784461 4.603348
-0.732811 3.829923 4.609686
-0.724734 3.724099 4.575337
-0.724632 3.377255 4.567954
-0.716099 2.917610 4.549700
-0.709905 2.314124 4.519069
-0.713406 3.452198 4.553366
-0.720399 3.990702 4.589094
-0.720399 3.990702 4.589094
-0.684212 2.463473 4.446411
-0.692671 3.886837 4.519683
-0.677997 2.925313 4.426738
-0.673841 2.366838 4.406456
-0.667728 3.660861 4.473196
-0.652329 2.706386 4.383497
-0.635181 2.780041 4.342320
-0.630112 3.162974 4.349484
-0.624833 2.947620 4.319964
-0.633335 3.814362 4.388791
-0.613486 3.006941 4.303647
-0.609105 3.343724 4.297252
-0.627752 4.008349 4.416852
-0.609748 3.551340 4.327365
-0.595950 2.455134 4.253808
-0.596319 2.624599 4.255579
-0.589809 2.138724 4.221302
-0.587655 2.803700 4.250487
-0.577457 2.730934 4.207571
-0.580290 3.382613 4.254114
-0.561964 3.054536 4.192772
-0.555784 2.567690 4.159162
-0.555784 2.567690 4.159162
-0.556864 2.788336 4.160127
-0.555519 3.128473 4.189902
-0.555519 3.128473 4.189902
-0.557196 3.445030 4.205345
-0.537769 2.294357 4.109423
-0.534844 2.330062 4.100983
-0.539834 3.154509 4.156702
-0.539765 3.356980 4.170444
-0.539765 3.356980 4.170444
-0.522595 2.103178 4.087198
-0.542859 4.082752 4.241685
-0.524205 2.973581 4.112434
-0.529749 3.278257 4.153143
-0.523365 3.195306 4.127137
-0.512508 2.229685 4.063649
-0.513952 3.358794 4.112852
-0.501656 2.854780 4.047811
-0.501656 2.854780 4.047811
-0.506756 3.260162 4.091492
-0.493458 2.740895 4.027091
-0.492968 3.177708 4.058264
-0.492968 3.177708 4.058264
-0.490571 3.543445 4.071064
-0.472388 2.647650 3.983841
-0.469151 2.119932 3.975927
-0.472384 2.869056 4.002945
-0.469650 2.898424 3.993632
-0.473123 3.185646 4.020917
-0.460911 1.350496 3.953684
-0.471040 3.531895 4.037387
-0.471040 3.531895 4.037387
-0.445580 1.949783 3.851149
-0.445541 2.640043 3.928496
-0.447427 3.157271 3.952982
-0.447427 3.157271 3.952982
-0.438233 2.342602 3.905273
-0.439145 2.813115 3.920902
-0.439994 2.785224 3.924739
-0.434055 2.503312 3.900674
-0.439030 3.336018 3.948714
-0.430350 3.209877 3.926309
-0.425582 3.125834 3.913605
-0.425582 3.125834 3.913605
-0.416349 2.161805 3.851921
-0.418069 2.919986 3.881622
-0.418069 2.919986 3.881622
-0.411596 1.313868 3.849027
-0.416005 2.886549 3.876630
-0.414828 2.939309 3.875721
-0.414828 2.939309 3.875721
-0.403997 1.990095 3.808770
-0.403032 2.600388 3.825728
-0.398063 3.029566 3.846176
-0.395073 3.339378 3.860213
-0.377181 2.631562 3.779725
-0.372245 1.230186 3.768886
-0.378910 3.098810 3.807215
-0.377318 3.163625 3.811244
-0.377318 3.163625 3.811244
-0.371595 3.127944 3.797152
-0.370437 3.038524 3.791761
-0.363786 2.450478 3.738307
-0.371179 3.339151 3.805692
-0.364977 3.265464 3.788325
-0.365403 3.469621 3.807790
-0.362110 3.239372 3.783224
-0.355501 2.893336 3.744207
-0.351451 2.969456 3.743043
-0.346499 2.549766 3.706873
-0.345982 2.398082 3.710219
-0.348570 2.925567 3.728805
-0.341306 3.072963 3.713207
-0.334582 2.577105 3.686625
-0.340167 3.376262 3.753306
-0.340167 3.376262 3.753306
-0.331170 3.048999 3.690687
-0.326845 2.733857 3.673777
-0.327256 2.770909 3.674979
-0.323667 2.532424 3.658995
-0.325289 3.205981 3.697062
-0.321839 2.934537 3.685483
-0.316443 2.561676 3.638331
-0.304790 1.176555 3.549329
-0.316329 3.086137 3.666002
-0.309971 2.004829 3.596035
-0.310543 2.433496 3.624511
-0.306525 2.648515 3.628203
-0.308157 3.142032 3.647929
-0.294192 3.144419 3.629705
-0.288263 2.597512 3.593120
-0.288263 2.597512 3.593120
-0.288011 2.455935 3.581457
-0.281734 2.034467 3.554814
-0.286597 3.059122 3.613941
-0.274112 2.531503 3.543972
-0.277383 2.952184 3.578567
-0.263478 1.329114 3.474338
-0.272680 2.916553 3.576740
-0.268198 2.384918 3.536313
-0.265836 3.033942 3.561078
-0.260792 2.469854 3.517116
-0.256980 2.430551 3.511296
-0.258088 2.899825 3.543288
-0.254280 2.978844 3.537265
-0.241409 1.939988 3.467982
-0.243822 2.545850 3.488857
-0.239219 2.157655 3.444370
-0.237223 2.100266 3.453801
-0.237223 2.100266 3.453801
-0.238758 2.374221 3.466841
-0.241143 2.927233 3.501500
-0.234841 4.028900 3.545899
-0.223168 1.882974 3.416168
-0.226701 2.692208 3.463137
-0.217387 2.057647 3.419855
-0.217387 2.057647 3.419855
-0.212034 1.036500 3.383437
-0.218119 2.840944 3.445582
-0.213274 2.269715 3.417253
-0.217448 3.114269 3.483209
-0.217448 3.114269 3.483209
-0.206615 2.856589 3.425620
-0.198386 1.848598 3.393090
-0.191381 2.054018 3.351376
-0.191556 1.881522 3.357865
-0.189963 2.272526 3.355150
-0.185566 2.210603 3.349353
-0.183441 2.114640 3.332428
-0.180659 2.222023 3.345332
-0.180676 2.831074 3.370142
-0.178182 2.315694 3.333617
-0.181091 2.660224 3.367310
-0.178412 2.621474 3.355273
-0.178412 2.621474 3.355273
-0.177148 2.636000 3.356515
-0.171885 2.223118 3.322094
-0.170665 2.067851 3.314165
-0.171035 2.760890 3.344319
-0.171035 2.760890 3.344319
-0.168055 1.855940 3.300830
-0.167325 2.378733 3.319579
-0.171508 3.196367 3.372617
-0.166196 2.537661 3.318837
-0.162449 1.985852 3.289766
-0.160441 1.911982 3.286979
-0.159168 2.148504 3.288466
-0.153557 1.994741 3.270482
-0.158840 3.183713 3.373481
-0.151493 0.994888 3.263549
-0.151712 2.070886 3.274011
-0.148834 1.806789 3.255631
-0.146763 2.238548 3.263498
-0.143314 2.192377 3.243535
-0.141173 1.993507 3.222369
-0.144275 2.575209 3.277669
-0.141217 1.880699 3.255288
-0.140169 0.918097 3.245538
-0.134892 0.955986 3.230705
-0.136388 2.441050 3.258901
-0.123429 0.926236 3.213306
-0.121875 1.962896 3.198993
-0.118014 0.983390 3.200681
-0.117117 0.902395 3.193491
-0.115768 1.877557 3.191650
-0.117793 2.396771 3.212584
-0.117793 2.396771 3.212584
-0.114314 1.786598 3.186790
-0.111759 2.040048 3.186848
-0.108380 0.993494 3.179950
-0.107409 2.229520 3.184681
-0.096400 2.238293 3.155345
-0.097494 2.266672 3.160274
-0.093652 1.928872 3.122425
-0.094229 2.755333 3.180136
-0.084062 1.801837 3.136095
-0.081835 1.987609 3.112723
-0.076937 3.004107 3.162244
-0.073266 1.899504 3.087866
-0.067860 2.185542 3.091366
-0.064582 1.746392 3.066575
-0.064770 1.813391 3.052222
-0.064770 1.813391 3.052222
-0.062348 0.516684 3.077520
-0.066271 3.582486 3.163737
-0.060537 2.226110 3.081842
-0.060537 2.226110 3.081842
-0.056441 2.231169 3.066757
-0.055122 2.361629 3.076207
-0.055122 2.361629 3.076207
-0.054134 1.920668 3.046843
-0.053650 1.931350 3.047003
-0.051831 2.953695 3.109304
-0.043553 0.499819 3.047571
-0.041332 2.180104 3.039574
-0.041332 2.180104 3.039574
-0.041429 2.303092 3.037509
-0.037060 2.207049 3.020251
-0.035225 2.761285 3.060959
-0.035225 2.761285 3.060959
-0.029495 1.844438 2.985463
-0.025417 2.564948 3.023724
-0.025631 2.914731 3.040766
-0.021091 1.987975 2.981613
-0.020612 2.707067 3.031011
-0.019303 2.270524 2.997345
-0.015914 2.529481 2.998431
-0.010609 1.981527 2.971690
-0.010336 2.742130 3.005571
-0.009353 3.693133 3.035045
-0.006565 2.241807 2.972393
-0.003464 1.687924 2.938347
-0.003673 2.193634 2.955683
-0.003325 2.082081 2.946531
-0.003974 2.325878 2.963518
0.002096 2.209110 2.948335
0.003605 2.228868 2.944888
0.007131 1.847075 2.919571
0.005528 2.159126 2.930421
0.007190 1.931220 2.918185
0.008000 2.769770 2.957955
0.009004 2.007880 2.919093
0.011388 2.159679 2.918574
0.014906 2.485882 2.928098
0.016433 1.970758 2.894645
0.023497 1.805516 2.874431
0.023207 1.876929 2.882101
0.026404 1.826689 2.867077
0.027348 1.697086 2.856515
0.029599 1.758588 2.861437
0.028985 2.490726 2.895292
0.030970 2.805243 2.906079
0.035940 2.466637 2.888366
0.035988 2.407859 2.880677
0.035988 2.407859 2.880677
0.040784 2.700998 2.889617
0.040784 2.700998 2.889617
0.045282 1.690447 2.839701
0.049657 1.703128 2.816151
0.053018 2.269282 2.836743
0.053557 3.415297 2.882576
0.054460 2.403932 2.844357
0.054460 2.403932 2.844357
0.055786 3.528637 2.886753
0.057373 2.785565 2.861514
0.056341 1.663271 2.794421
0.056836 2.337227 2.831881
0.059611 2.517323 2.836204
0.059700 2.156162 2.822802
0.059280 2.097235 2.843504
0.061142 1.741044 2.797686
0.071126 2.619170 2.820292
0.073594 1.673412 2.774608
0.073119 2.653586 2.815411
0.073119 2.653586 2.815411
0.072663 2.338526 2.798743
0.072663 2.338526 2.798743
0.073751 2.248052 2.787895
0.081314 3.349302 2.822640
0.082549 1.811690 2.749722
0.087153 2.714167 2.787793
0.096310 1.866906 2.728709
0.095423 1.654397 2.717812
0.096807 2.120157 2.739141
0.099453 2.309192 2.738673
0.099453 2.309192 2.738673
0.103445 2.596662 2.752005
0.103445 2.596662 2.752005
0.105982 3.436170 2.772636
0.107598 2.292488 2.720214
0.107956 2.678525 2.742824
0.107346 2.162097 2.714962
0.107758 1.960311 2.701014
0.109085 1.755191 2.691457
0.111103 1.701437 2.676725
0.111103 1.701437 2.676725
0.115093 1.958311 2.687804
0.115339 2.042099 2.690237
0.115660 2.055383 2.691864
0.116964 2.565834 2.721696
0.117565 2.299631 2.698903
0.117565 2.299631 2.698903
0.118470 2.655683 2.718766
0.118470 2.655683 2.718766
0.117283 1.966249 2.684398
0.120445 2.331337 2.698370
0.119226 1.993945 2.680784
0.119598 2.069189 2.686143
0.119388 1.993033 2.679267
0.121169 2.615697 2.709832
0.122956 3.328709 2.720347
0.123851 1.953003 2.670987
0.124650 2.039203 2.671714
0.125525 2.531422 2.699616
0.125525 2.531422 2.699616
0.127587 2.644480 2.698176
0.126653 2.122093 2.671962
0.127209 2.019408 2.667305
0.127229 1.727899 2.646183
0.127229 1.727899 2.646183
0.128411 1.971766 2.661352
0.130204 1.817947 2.649436
0.131471 2.306539 2.676163
0.131010 2.325543 2.676958
0.131322 1.650439 2.638499
0.136625 1.880272 2.633355
0.137398 2.001876 2.640137
0.137585 1.734084 2.629194
0.135924 1.827679 2.628604
0.137987 1.952853 2.638377
0.139920 1.713266 2.620254
0.141122 2.243647 2.646747
0.142346 2.290623 2.650937
0.144431 1.830032 2.606879
0.146066 1.636117 2.603387
0.147942 1.849362 2.605988
0.148312 1.772685 2.607224
0.157526 1.798729 2.586683
0.157095 1.694435 2.580190
0.161000 1.780448 2.555300
0.174272 1.508088 2.525436
0.183709 3.264517 2.601489
0.187097 1.575210 2.516222
0.188073 1.947910 2.529410
0.191443 2.367278 2.546223
0.190724 2.172360 2.535135
0.193726 1.998232 2.516278
0.193726 1.998232 2.516278
0.203601 2.085430 2.502860
0.202094 1.636185 2.481559
0.205846 2.705190 2.532614
0.214610 1.534006 2.447959
0.218630 2.445307 2.483103
0.221862 2.306458 2.477875
0.235052 2.487864 2.453668
0.234606 2.090371 2.436761
0.234981 2.089294 2.435862
0.236069 2.269331 2.438228
0.234831 1.581909 2.413538
0.239099 2.054183 2.425909
0.245624 2.405317 2.429636
0.246410 2.033371 2.408791
0.245424 1.519361 2.389185
0.248463 2.059292 2.402088
0.254766 2.020590 2.386903
0.253130 1.553002 2.369208
0.257037 2.423597 2.403212
0.260324 1.516623 2.360249
0.260669 1.499727 2.356411
0.262473 1.915314 2.372092
0.264103 2.369581 2.381660
0.265361 1.935065 2.363378
0.265361 1.935065 2.363378
0.272974 2.275518 2.365148
0.273069 2.354912 2.361481
0.272289 1.988399 2.349616
0.272947 1.527481 2.322761
0.274546 1.473817 2.325874
0.285279 2.422915 2.328928
0.291326 1.926594 2.299650
0.295714 2.189350 2.309572
0.298577 1.784680 2.280537
0.298577 1.784680 2.280537
0.299017 1.736554 2.279940
0.299017 1.736554 2.279940
0.297913 1.361730 2.255769
0.306652 2.069832 2.272217
0.308716 2.315182 2.284179
0.305484 1.421814 2.248277
0.313023 2.137096 2.269847
0.310877 1.750217 2.254697
0.314774 1.341638 2.223456
0.316614 1.731278 2.242619
0.316663 1.378799 2.227329
0.316684 1.617132 2.235669
0.321391 2.219054 2.255144
0.323596 1.840849 2.234628
0.325738 2.175593 2.242973
0.325738 2.175593 2.242973
0.324314 1.887238 2.229410
0.324314 1.887238 2.229410
0.325926 2.171702 2.235915
0.326908 2.160390 2.236364
0.332109 2.330016 2.234540
0.332563 2.139254 2.224010
0.334039 1.888790 2.208255
0.334053 1.859743 2.209206
0.339714 2.960614 2.239003
0.339154 2.340066 2.224240
0.337748 1.393406 2.181908
0.341475 2.302465 2.210710
0.345805 1.999644 2.192530
0.343116 1.461368 2.170661
0.349276 1.370039 2.158984
0.353280 1.485887 2.153589
0.356607 2.243554 2.173088
0.356579 2.242943 2.172159
0.355546 1.559381 2.151791
0.359588 2.332731 2.177671
0.357475 1.458025 2.141537
0.355473 0.954160 2.125257
0.359813 1.432104 2.139874
0.360842 1.408412 2.138442
0.360821 1.445852 2.134470
0.367339 2.905550 2.173686
0.367339 2.905550 2.173686
0.360842 1.379464 2.125316
0.362903 1.475703 2.133180
0.362241 1.478854 2.124374
0.364288 1.651904 2.133321
0.365597 1.389210 2.121697
0.370123 1.740417 2.127203
0.372912 2.002724 2.134776
0.369989 1.550100 2.117240
0.371943 1.371952 2.109020
0.378851 1.952330 2.120164
0.378851 1.952330 2.120164
0.376288 1.486960 2.102469
0.380767 2.268756 2.124538
0.382517 1.476918 2.099501
0.381573 1.457590 2.093181
0.383487 1.592877 2.091248
0.383135 1.466737 2.076999
0.386904 1.911987 2.099887
0.385234 1.445935 2.078421
0.387883 1.974085 2.097398
0.387883 1.974085 2.097398
0.390766 1.789551 2.084870
0.392004 1.985663 2.085586
0.392922 1.933577 2.083381
0.390492 1.456011 2.067473
0.394522 1.805679 2.077396
0.392289 1.499101 2.062577
0.401818 2.268488 2.080711
0.401491 2.245635 2.077460
0.398818 1.549616 2.054807
0.402461 1.855563 2.060383
0.404127 1.556966 2.045087
0.407997 1.768386 2.051889
0.409701 2.249963 2.061414
0.412397 2.253884 2.055979
0.410482 1.550873 2.033000
0.413856 2.126151 2.046655
0.416613 1.781404 2.028482
0.417245 1.710404 2.024394
0.421254 2.253897 2.033912
0.418413 1.722477 2.018913
0.422885 1.756446 2.015623
0.423315 1.541927 2.009362
0.428154 2.222275 2.016133
0.430346 2.253587 2.016804
0.430346 2.253587 2.016804
0.430596 2.204146 2.014939
0.428960 1.564624 1.991186
0.428960 1.564624 1.991186
0.431530 1.704350 1.995275
0.431530 1.704350 1.995275
0.433803 2.255479 2.006465
0.434856 2.124267 2.006453
0.434181 2.063422 2.000757
0.433546 1.735284 1.988529
0.434728 1.753876 1.984975
0.436489 1.682324 1.980338
0.438300 2.237968 1.985590
0.439369 2.163882 1.989261
0.444507 2.087100 1.980878
0.444586 2.145364 1.976898
0.443608 1.680335 1.958647
0.448054 2.883828 1.979188
0.446988 2.159788 1.975081
0.444734 1.350395 1.958558
0.449703 3.274423 1.976372
0.447900 2.099549 1.972043
0.447863 1.957687 1.968706
0.449260 2.113211 1.969342
0.451002 2.890789 1.972403
0.450521 2.123533 1.964624
0.449538 1.326410 1.945552
0.453155 1.959042 1.956507
0.458233 3.339112 1.960642
0.458591 2.105020 1.946190
0.456097 1.469681 1.936123
0.456097 1.469681 1.936123
0.458014 2.117271 1.944979
0.459857 2.008876 1.941144
0.459857 2.008876 1.941144
0.460208 2.088284 1.943931
0.458559 1.454691 1.933158
0.464126 2.107834 1.933512
0.466839 3.212130 1.940471
0.465953 2.084988 1.927936
0.468206 2.784783 1.932016
0.470290 2.860993 1.928661
0.470290 2.860993 1.928661
0.472136 2.912744 1.932995
0.469888 2.704260 1.911179
0.472242 2.819435 1.924816
0.473881 2.939533 1.922035
0.475342 2.004211 1.904683
0.475342 2.004211 1.904683
0.478076 3.275299 1.914602
0.475097 1.926324 1.897510
0.479456 2.841788 1.908696
0.479914 2.796631 1.905796
0.480544 2.740525 1.904058
0.480789 2.726600 1.901810
0.483176 3.043522 1.903135
0.480685 1.891341 1.894405
0.483106 2.707114 1.896807
0.484652 2.827178 1.896696
0.482952 2.203529 1.886370
0.483473 1.912539 1.887769
0.486342 3.186499 1.893938
0.484824 2.037396 1.886983
0.484623 1.993950 1.885911
0.487305 2.667637 1.889498
0.487251 2.685091 1.886758
0.487018 1.868541 1.877584
0.489209 1.988503 1.876042
0.492149 3.170836 1.883128
0.492149 3.170836 1.883128
0.492586 2.658434 1.875978
0.493011 3.116555 1.878565
0.492479 2.671999 1.875629
0.491846 2.217005 1.867533
0.491700 2.187443 1.865185
0.494104 3.147138 1.876279
0.493168 2.005664 1.867669
0.496451 3.074542 1.871364
0.496380 2.652898 1.867233
0.501330 3.049300 1.858472
0.499205 2.202252 1.849711
0.502965 3.011608 1.849089
0.502965 3.011608 1.849089
0.506095 3.117246 1.848908
0.505414 3.021923 1.847847
0.507288 3.124672 1.846148
0.507636 2.704427 1.839041
0.506612 1.956271 1.833832
0.512879 3.085582 1.837117
0.513852 3.094300 1.829346
0.512180 2.113653 1.818774
0.516563 3.050358 1.822969
0.518716 2.621870 1.813993
0.518716 2.621870 1.813993
0.521365 3.030498 1.806195
0.522231 2.637766 1.806013
0.523798 3.008362 1.797054
0.524553 3.010643 1.800190
0.524669 2.608940 1.800723
0.528548 2.980802 1.796181
0.528334 2.629628 1.792755
0.529473 2.600211 1.788615
0.532185 2.931197 1.786104
0.532185 2.931197 1.786104
0.534839 2.179833 1.772591
0.535480 2.235558 1.774288
0.535301 2.234619 1.772916
0.541234 2.032481 1.754619
0.542630 3.052780 1.760678
0.547836 3.006613 1.747662
0.557322 0.509144 1.684129
0.562845 0.503375 1.677347
0.568524 2.019972 1.684930
0.570690 1.949793 1.685113
0.566732 0.510731 1.669686
0.579580 2.480632 1.679784
0.587716 1.861511 1.643283
0.592945 2.513102 1.650371
0.590371 1.800894 1.634765
0.592967 1.810754 1.634818
0.595188 1.854839 1.622083
0.598490 1.891517 1.622533
0.598490 1.891517 1.622533
0.600755 1.919864 1.621214
0.601796 1.921297 1.610584
0.603538 1.903080 1.612675
0.603538 1.903080 1.612675
0.605683 1.907223 1.603140
0.607919 1.635530 1.593101
0.613331 1.885631 1.586277
0.616895 1.899191 1.578864
0.618290 1.744750 1.574986
0.621769 1.763885 1.564215
0.623046 1.792474 1.561001
0.625745 2.010678 1.565470
0.624033 1.722156 1.559908
0.624557 1.734334 1.560545
0.624869 1.753780 1.559012
0.624869 1.753780 1.559012
0.625186 1.806608 1.558491
0.626375 1.821854 1.557336
0.631231 1.672997 1.541038
0.632343 1.696323 1.541411
0.634839 1.762941 1.536246
0.635122 1.716944 1.534743
0.639719 1.520461 1.518313
0.652768 1.021368 1.510118
0.658868 0.820699 1.473899
0.659715 0.784683 1.463351
0.673048 1.541912 1.445770
0.676093 1.697017 1.444336
0.675485 1.510507 1.438282
0.678591 1.675200 1.437002
0.679090 1.806355 1.436555
0.674554 0.248095 1.422321
0.682655 2.464659 1.428792
0.684659 1.757119 1.422106
0.684757 1.619609 1.420341
0.687324 1.725784 1.417246
0.689795 1.650348 1.409281
0.690121 1.640119 1.408659
0.692831 1.909047 1.407376
0.698683 1.793358 1.393754
0.698197 1.870313 1.391444
0.699589 2.297724 1.389929
0.697525 1.485043 1.384524
0.700131 2.284170 1.388600
0.700471 1.457243 1.381696
0.702054 1.788900 1.381436
0.705050 1.436208 1.370295
0.707314 1.252341 1.368138
0.709974 1.235390 1.365243
0.710562 1.127242 1.363824
0.711033 1.772878 1.362379
0.714048 1.876661 1.356405
0.712720 0.771798 1.350073
0.715749 1.743887 1.350293
0.710441 0.767570 1.335453
0.717518 1.842385 1.346768
0.717509 0.783068 1.338516
0.719536 2.245736 1.339202
0.723372 1.499680 1.330551
0.723372 1.499680 1.330551
0.724118 2.207070 1.328455
0.725770 1.482482 1.325332
0.742437 1.760519 1.341340
0.729902 2.181425 1.316520
0.729902 2.181425 1.316520
0.729839 2.203403 1.313339
0.731908 1.441256 1.311108
0.731771 1.475935 1.310382
0.733404 1.383130 1.306846
0.733404 1.383130 1.306846
0.733343 1.474815 1.306118
0.732525 0.724436 1.300660
0.735277 1.432433 1.302554
0.735799 1.649840 1.304057
0.735368 1.369951 1.301294
0.735939 1.440428 1.298438
0.737614 1.600258 1.297066
0.738519 1.443103 1.295519
0.738757 1.446539 1.292727
0.738757 1.446539 1.292727
0.739865 1.685854 1.294433
0.740286 1.696791 1.293656
0.744346 1.424073 1.280319
0.744922 1.719186 1.281608
0.746810 1.441728 1.275998
0.746949 1.276518 1.275215
0.747748 2.114340 1.270037
0.749186 1.402975 1.270486
0.750027 1.403408 1.266472
0.754438 1.394756 1.258664
0.753959 1.438911 1.258654
0.760464 1.702336 1.244748
0.763691 1.380528 1.235240
0.764029 1.314184 1.235876
0.765480 1.483632 1.233825
0.766072 1.392730 1.233970
0.766742 1.479974 1.229378
0.772617 2.113036 1.232054
0.772617 2.113036 1.232054
0.769059 1.387600 1.222988
0.768811 2.021358 1.222547
0.767332 2.269058 1.218593
0.770547 1.435696 1.219522
0.770937 1.475350 1.219890
0.771990 1.449840 1.216393
0.773296 1.452363 1.212948
0.775428 0.692702 1.207764
0.778550 1.270358 1.202760
0.779237 1.611585 1.201051
0.781176 1.625567 1.195606
0.781190 1.582392 1.195275
0.781636 1.590401 1.194434
0.782971 1.342072 1.191142
0.783468 1.742198 1.189148
0.786867 1.160274 1.182401
0.786278 1.395990 1.181003
0.786508 1.635553 1.181175
0.787952 1.382110 1.179745
0.787692 1.588995 1.179796
0.788778 1.422296 1.178894
0.788091 1.629596 1.177448
0.789937 1.244464 1.176295
0.789657 1.144805 1.175606
0.790012 0.655316 1.175499
0.790012 0.655316 1.175499
0.790647 1.249857 1.174094
0.790647 1.249857 1.174094
0.790999 1.756915 1.173583
0.796505 1.359335 1.159621
0.796770 0.495240 1.159853
0.798641 1.725369 1.158681
0.799202 0.512922 1.151906
0.799547 1.351839 1.152675
0.799746 0.475908 1.150797
0.801656 0.538512 1.149034
0.802426 0.484393 1.145394
0.802426 0.484393 1.145394
0.803352 0.532804 1.145638
0.804044 0.506551 1.142052
0.804902 0.560417 1.142133
0.806272 0.568170 1.139030
0.805557 0.489333 1.137909
0.805557 0.489333 1.137909
0.806269 0.561392 1.138535
0.805965 0.481125 1.137285
0.806587 0.449846 1.134810
0.807200 0.498522 1.134951
0.807677 0.592269 1.134249
0.808442 0.569224 1.133569
0.808442 0.569224 1.133569
0.808617 0.562782 1.132546
0.808892 0.549628 1.131522
0.808892 0.549628 1.131522
0.810265 1.161747 1.129131
0.809981 0.457540 1.127510
0.811751 0.467300 1.124440
0.812044 0.456417 1.123824
0.812603 0.523226 1.123980
0.813148 1.700423 1.122995
0.812509 0.540758 1.121077
0.813277 0.491294 1.120652
0.813234 0.588067 1.120065
0.813273 0.535052 1.120492
0.813510 0.486603 1.120276
0.813756 0.459767 1.120089
0.813568 1.415946 1.116492
0.814090 1.446772 1.116440
0.814731 0.482049 1.116587
0.815244 0.450385 1.115739
0.815503 0.462066 1.116088
0.815822 0.577977 1.115067
0.814882 1.423981 1.114069
0.816078 0.504996 1.115662
0.815905 0.419188 1.114314
0.815969 1.392286 1.113283
0.815780 0.438082 1.113192
0.816718 0.454196 1.112900
0.816638 1.250488 1.112434
0.817155 0.545252 1.112568
0.817507 0.440126 1.111240
0.817096 1.424729 1.109371
0.818455 0.432930 1.111023
0.817770 0.422497 1.109882
0.817687 0.422594 1.109600
0.818140 0.454208 1.109190
0.818493 0.470057 1.108532
0.818493 0.470057 1.108532
0.818694 0.445069 1.108660
0.819449 0.485089 1.107608
0.819324 0.572839 1.107492
0.819191 1.369512 1.105094
0.820092 1.143788 1.105636
0.820076 0.477713 1.104702
0.819983 1.401508 1.102324
0.820510 1.374372 1.101704
0.822494 0.515459 1.099610
0.821705 1.399137 1.098604
0.822094 1.232333 1.098394
0.822797 0.488620 1.098927
0.822678 0.463026 1.098314
0.822992 0.509113 1.098272
0.822992 0.509113 1.098272
0.822985 0.523885 1.098192
0.824367 0.466518 1.095682
0.823220 1.554632 1.093246
0.824627 0.440863 1.094394
0.824970 0.433249 1.094920
0.825178 0.450468 1.094189
0.825219 0.545738 1.094061
0.825067 0.491397 1.092131
0.826039 0.493612 1.091683
0.826053 0.425801 1.091556
0.826053 0.425801 1.091556
0.826053 0.425801 1.091556
0.824584 1.542646 1.089673
0.824584 1.542646 1.089673
0.825974 0.530957 1.090967
0.827243 0.513766 1.089540
0.827319 0.450197 1.087804
0.827769 0.514515 1.086396
0.828474 0.524449 1.086344
0.828623 0.548035 1.085779
0.828533 0.441421 1.085480
0.828961 0.455426 1.084481
0.828250 1.283214 1.082720
0.828646 1.369073 1.082636
0.829053 0.433951 1.083210
0.828555 1.360007 1.082051
0.828555 1.360007 1.082051
0.828340 1.554780 1.081329
0.830516 0.389013 1.080870
0.830371 0.552266 1.080585
0.830970 0.562548 1.081057
0.831112 0.454177 1.081421
0.829250 1.559457 1.079516
0.830962 0.429599 1.080343
0.829068 1.577038 1.077794
0.829068 1.577038 1.077794
0.830755 0.446052 1.079444
0.831116 0.464136 1.079179
0.830461 1.580629 1.077261
0.830461 1.580629 1.077261
0.831656 0.401035 1.077659
0.830767 1.368844 1.077065
0.832375 0.389741 1.076871
0.831728 1.356149 1.075052
0.831925 1.336929 1.074155
0.831925 1.336929 1.074155
0.833173 0.545196 1.075539
0.833134 0.372306 1.075280
0.830914 1.568894 1.072971
0.833534 0.492939 1.073920
0.834398 0.431130 1.073570
0.834597 0.534239 1.072910
0.834597 0.534239 1.072910
0.832627 1.577530 1.071047
0.834476 0.523528 1.071810
0.834476 0.523528 1.071810
0.834350 0.543953 1.071428
0.834609 0.495920 1.071600
0.834609 0.495920 1.071600
0.835265 0.420916 1.069744
0.836210 0.455465 1.069271
0.835674 0.456589 1.067556
0.835160 1.335010 1.066131
0.836852 0.459193 1.067620
0.837938 0.439520 1.066177
0.837792 0.454661 1.065042
0.838110 0.550922 1.063919
0.835978 1.658609 1.062001
0.838351 0.511378 1.063941
0.838107 0.481819 1.063707
0.838960 0.503107 1.062386
0.838960 0.503107 1.062386
0.839071 0.514194 1.061628
0.839655 0.471367 1.061734
0.839427 0.488412 1.061302
0.840219 0.124280 1.061189
0.839865 0.474227 1.059110
0.839865 0.474227 1.059110
0.840522 0.547736 1.058559
0.840408 0.478896 1.058332
0.840408 0.478896 1.058332
0.840851 0.423220 1.057210
0.840655 1.042847 1.056527
0.841234 0.431726 1.056404
0.841447 0.439472 1.055721
0.842281 1.044310 1.054445
0.841991 0.398225 1.053860
0.842461 0.486146 1.053733
0.842439 0.422126 1.053020
0.842594 0.333152 1.052623
0.843459 0.546512 1.052436
0.843870 0.537680 1.051594
0.842844 1.307496 1.049536
0.844362 0.476540 1.049757
0.845047 0.481625 1.048167
0.844941 0.461753 1.046994
0.844941 0.461753 1.046994
0.845491 0.381537 1.047567
0.845221 0.469076 1.046933
0.845552 0.389180 1.046665
0.846781 0.523962 1.046550
0.846165 0.434851 1.045144
0.846133 0.529808 1.044822
0.846168 0.375470 1.044446
0.846168 0.375470 1.044446
0.846230 0.393526 1.044196
0.846656 0.362214 1.042529
0.846656 0.362214 1.042529
0.846992 0.405600 1.042658
0.846992 0.405600 1.042658
0.848141 0.451895 1.043300
0.845968 1.364371 1.040558
0.848020 0.537856 1.042208
0.848418 0.347765 1.042317
0.848324 0.528333 1.042004
0.847922 1.126301 1.038803
0.847922 1.126301 1.038803
0.848685 0.388616 1.038636
0.848990 0.350446 1.037900
0.849122 0.342658 1.037803
0.849153 0.465498 1.037140
0.849495 0.432787 1.037439
0.849852 0.437563 1.036281
0.850482 0.440941 1.034597
0.849195 1.309650 1.032698
0.850785 0.471993 1.034605
0.850629 0.368849 1.034047
0.850805 0.382201 1.033516
0.851317 0.533073 1.032998
0.851267 0.332406 1.032568
0.852026 0.363473 1.030428
0.852107 0.341141 1.030229
0.852013 0.352348 1.030126
0.852343 0.389628 1.030258
0.853059 0.459347 1.030862
0.852498 0.491564 1.029640
0.853154 0.478170 1.029383
0.851763 1.263581 1.026151
0.852195 1.257267 1.025283
0.852177 1.399895 1.025366
0.854052 0.502222 1.026730
0.854587 0.437776 1.026377
0.854562 0.451208 1.025771
0.853688 1.122812 1.024117
0.853017 1.406940 1.022613
0.852425 1.420755 1.021524
0.854521 1.372677 1.020126
0.854395 1.394298 1.019585
0.856645 0.359799 1.019955
0.856406 0.308695 1.019310
0.857271 0.329408 1.019545
0.857299 0.431318 1.019151
0.857299 0.431318 1.019151
0.857971 0.440919 1.019063
0.855672 1.343500 1.016539
0.857843 0.468807 1.018663
0.858117 0.422062 1.018589
0.858519 0.460584 1.016581
0.858519 0.460584 1.016581
0.855970 1.403884 1.013689
0.858855 0.450561 1.015986
0.858719 0.313479 1.015678
0.856937 1.391413 1.012941
0.859370 0.394918 1.015230
0.857093 1.377881 1.012679
0.859409 0.382001 1.014296
0.859595 0.442709 1.014555
0.859509 0.476174 1.014293
0.859509 0.476174 1.014293
0.859567 0.467668 1.014004
0.858569 1.363776 1.010608
0.858569 1.363776 1.010608
0.860283 0.319360 1.010571
0.860587 0.318728 1.010538
0.861692 0.464031 1.010153
0.860846 0.292339 1.009130
0.859702 1.524648 1.005670
0.862436 0.494217 1.008244
0.861519 0.337823 1.006925
0.862968 0.488506 1.008240
0.862222 0.966644 1.007132
0.860489 1.337448 1.005164
0.862740 0.512598 1.007481
0.862603 0.476469 1.006544
0.863027 0.333855 1.005059
0.861121 1.337278 1.002937
0.863267 0.356442 1.004973
0.863661 0.498927 1.004904
0.863499 0.479325 1.004467
0.863658 0.308277 1.004047
0.863347 0.339644 1.003366
0.863978 0.372187 1.003919
0.861188 1.509364 1.001049
0.863872 0.489789 1.003588
0.864588 0.364541 1.001475
0.864588 0.364541 1.001475
0.865063 0.298689 1.001435
0.865595 0.453824 1.002064
0.864926 0.354673 1.000616
0.864944 0.325948 1.000397
0.863649 1.325857 0.997862
0.865382 0.491999 1.000200
0.865994 0.509222 1.000909
0.865293 0.285854 0.998530
0.862918 1.615005 0.995612
0.866261 0.370175 0.998414
0.866261 0.370175 0.998414
0.866779 0.442386 0.998941
0.866822 0.380808 0.997267
0.866929 0.372618 0.996884
0.866929 0.372618 0.996884
0.867375 0.506088 0.996760
0.867141 0.510688 0.995882
0.867231 0.472058 0.995834
0.867087 0.324463 0.995606
0.866754 0.950686 0.994903
0.867585 0.355532 0.994685
0.867833 0.384732 0.994685
0.867978 0.372665 0.994124
0.868409 0.429411 0.993195
0.868628 0.376516 0.993248
0.865922 1.474982 0.989707
0.868271 0.947101 0.991681
0.869402 0.445944 0.991966
0.869411 0.508467 0.991432
0.866783 1.537300 0.989224
0.868371 0.459289 0.990265
0.868056 1.109708 0.989253
0.869963 0.428016 0.990500
0.867350 1.307269 0.987915
0.870090 0.415778 0.988567
0.870498 0.473965 0.988914
0.869266 1.128737 0.987265
0.870731 0.422143 0.987915
0.869803 1.034076 0.986888
0.870739 0.438870 0.987481
0.870369 0.322240 0.986476
0.870193 1.120456 0.985157
0.869244 1.272414 0.984146
0.871591 0.374558 0.985929
0.871781 0.425223 0.985615
0.871287 0.335134 0.984121
0.872517 0.365284 0.985416
0.869149 1.525463 0.982258
0.872300 0.367191 0.984195
0.871988 0.301997 0.983042
0.870534 1.221151 0.981005
0.870534 1.221151 0.981005
0.872498 0.166472 0.982277
0.873299 0.311822 0.982415
0.872345 0.336787 0.981184
0.871640 0.165218 0.978660
0.873607 0.376097 0.980358
0.874035 0.397141 0.980437
0.873783 0.315664 0.979911
0.874414 0.433882 0.979194
0.875334 0.491797 0.977463
0.875353 0.464990 0.977413
0.875749 0.380787 0.977121
0.875189 0.253630 0.976311
0.875368 0.335145 0.976251
0.876408 0.415364 0.975713
0.876626 0.433429 0.974589
0.876460 0.261756 0.974126
0.876688 0.390180 0.974225
0.876676 0.343740 0.974101
0.874659 1.300148 0.971745
0.877000 0.455895 0.973547
0.876874 0.365751 0.972709
0.877042 0.358241 0.972511
0.877374 0.422205 0.972330
0.877498 0.337434 0.972104
0.877498 0.337434 0.972104
0.878317 0.495676 0.972261
0.878406 0.222242 0.972306
0.877837 0.500089 0.971103
0.878241 0.307587 0.970134
0.879004 0.488414 0.970468
0.878456 0.413215 0.969534
0.876361 1.212338 0.967189
0.878624 0.450729 0.969260
0.879301 0.445132 0.969296
0.878919 0.389687 0.968714
0.877306 1.069656 0.966977
0.878986 0.419466 0.968102
0.878656 0.297237 0.967590
0.878987 0.499690 0.967438
0.879406 0.441650 0.967857
0.879111 0.322717 0.967512
0.879563 0.340603 0.966828
0.879552 0.334017 0.966362
0.879766 0.242723 0.965589
0.880156 0.237822 0.965239
0.880379 0.404808 0.965256
0.881262 0.382981 0.964860
0.880848 0.449802 0.963464
0.881081 0.375032 0.963454
0.881600 0.435325 0.963061
0.881691 0.424184 0.962945
0.881691 0.424184 0.962945
0.881999 0.439098 0.962615
0.882034 0.452350 0.961881
0.881868 0.242940 0.961631
0.882090 0.472521 0.961808
0.879733 1.202688 0.959011
0.882194 0.366950 0.960988
0.882313 0.282458 0.960431
0.882448 0.468276 0.960547
0.879982 1.298408 0.957727
0.881154 1.108131 0.958973
0.880000 1.294341 0.957842
0.880546 1.198214 0.958036
0.882628 0.457648 0.959855
0.881605 1.057875 0.958362
0.882761 0.359429 0.959528
0.882929 0.391675 0.959665
0.882929 0.391675 0.959665
0.882694 0.345502 0.959346
0.881946 0.289932 0.958007
0.881954 1.063106 0.957374
0.883234 0.285623 0.958708
0.883577 0.386525 0.958863
0.881023 1.257576 0.956046
0.883261 0.293367 0.957451
0.883261 0.293367 0.957451
0.883515 0.375828 0.955989
0.884460 0.320496 0.956748
0.884088 0.404054 0.956346
0.883080 1.054868 0.954289
0.884903 0.368454 0.955867
0.884712 0.287912 0.954636
0.884577 0.336592 0.954419
0.885242 0.275182 0.955124
0.885166 0.489734 0.954123
0.885027 0.431567 0.953918
0.882771 1.245615 0.951344
0.883260 1.189867 0.951400
0.885421 0.346990 0.953075
0.885386 0.451073 0.952798
0.885877 0.417718 0.952856
0.885925 0.465612 0.952587
0.885925 0.465612 0.952587
0.885580 0.329772 0.951824
0.885796 0.480186 0.952040
0.885899 0.372355 0.952005
0.885899 0.372355 0.952005
0.886260 0.403322 0.951935
0.886260 0.403322 0.951935
0.885818 0.303978 0.951202
0.885605 0.302367 0.950619
0.886258 0.277377 0.951108
0.886599 0.397460 0.951211
0.886252 0.339943 0.950821
0.886696 0.361848 0.950437
0.887142 0.414020 0.949953
0.886106 0.948734 0.948757
0.887173 0.332938 0.949745
0.887400 0.455569 0.948876
0.887345 0.382979 0.948756
0.887403 0.440914 0.948449
0.884516 1.265736 0.945808
0.887356 0.447308 0.948276
0.884914 1.343859 0.945510
0.887610 0.466585 0.947664
0.886381 1.046022 0.946325
0.887743 0.307153 0.947377
0.888135 0.294303 0.947764
0.887762 0.351477 0.947282
0.887870 0.252311 0.947375
0.887870 0.252311 0.947375
0.888119 0.473399 0.947555
0.885856 1.188623 0.944916
0.888003 0.493942 0.946957
0.888003 0.493942 0.946957
0.888365 0.280427 0.946340
0.888450 0.366914 0.946384
0.888385 0.271574 0.945680
0.888821 0.397069 0.945278
0.888821 0.397069 0.945278
0.889239 0.477528 0.945451
0.885715 1.476839 0.941907
0.888923 0.318185 0.944388
0.885530 1.364853 0.940892
0.889291 0.452887 0.944336
0.889669 0.251708 0.943277
0.889669 0.251708 0.943277
0.889645 0.479037 0.943114
0.887205 1.354247 0.940034
0.889974 0.292724 0.942372
0.890262 0.455681 0.942521
0.889954 0.309440 0.942151
0.889071 0.947196 0.940970
0.890320 0.373349 0.941922
0.890464 0.424090 0.941890
0.890464 0.424090 0.941890
0.890343 0.289191 0.941038
0.891257 0.463023 0.941762
0.887883 1.380156 0.938126
0.890931 0.320620 0.940590
0.890818 0.348525 0.940142
0.890610 0.302443 0.939928
0.890713 0.343502 0.940006
0.887736 1.391096 0.937147
0.887736 1.391096 0.937147
0.888514 1.329968 0.937311
0.890927 0.235887 0.939328
0.889274 1.163814 0.937410
0.891472 0.483012 0.938358
0.891947 0.423482 0.938738
0.892058 0.354131 0.938264
0.891681 0.278029 0.937874
0.891919 0.338467 0.938034
0.891341 0.324526 0.937446
0.892032 0.359842 0.937065
0.891928 0.245807 0.936900
0.892510 0.437072 0.936863
0.892214 0.313105 0.935876
0.893250 0.483150 0.935787
0.892814 0.452957 0.935283
0.893478 0.318640 0.935656
0.893172 0.364800 0.934752
0.893172 0.364800 0.934752
0.893278 0.306288 0.934653
0.893278 0.306288 0.934653
0.893413 0.370701 0.934326
0.893777 0.282823 0.933429
0.894141 0.454527 0.933425
0.893734 0.403664 0.932791
0.893309 0.424827 0.932335
0.894100 0.311780 0.932815
0.894270 0.465064 0.932617
0.894556 0.348894 0.931995
0.894718 0.384635 0.931392
0.895221 0.379471 0.931177
0.894509 0.325487 0.930477
0.894762 0.403997 0.929873
0.892269 1.322931 0.926468
0.895514 0.321860 0.928916
0.895515 0.287260 0.928701
0.895635 0.387286 0.928591
0.895571 0.374268 0.928413
0.895046 0.330491 0.927589
0.895947 0.318101 0.928236
0.896396 0.344610 0.928451
0.896193 0.364184 0.927878
0.896193 0.364184 0.927878
0.894465 1.021524 0.925939
0.896386 0.445033 0.927736
0.896610 0.310698 0.926622
0.893539 1.328912 0.923584
0.896377 0.351506 0.926039
0.893778 1.301370 0.923834
0.893778 1.301370 0.923834
0.897105 0.274187 0.926655
0.897105 0.274187 0.926655
0.896717 0.439632 0.926157
0.893890 1.335859 0.923434
0.897059 0.447722 0.925965
0.896795 0.365537 0.925574
0.896866 0.385443 0.925099
0.897419 0.284513 0.925557
0.897182 0.475399 0.924643
0.897591 0.398333 0.924510
0.898194 0.401887 0.923827
0.897572 0.392503 0.922789
0.898193 0.365040 0.922708
0.898413 0.316709 0.922029
0.898707 0.422264 0.921619
0.895416 1.279576 0.918292
0.896900 1.564594 0.920138
0.899195 0.285694 0.921629
0.899195 0.285694 0.921629
0.898918 0.300442 0.921318
0.896198 1.310887 0.918925
0.899056 0.307039 0.920876
0.899025 0.353366 0.920608
0.899906 0.458289 0.920499
0.899827 0.323505 0.919903
0.899843 0.317142 0.919755
0.899512 0.438765 0.919298
0.898876 0.893033 0.918492
0.899337 0.376715 0.918888
0.896519 1.284080 0.915771
0.896519 1.284080 0.915771
0.899347 0.385299 0.917924
0.900218 0.350849 0.918550
0.900309 0.380727 0.917643
0.900387 0.344280 0.917630
0.900261 0.399450 0.917443
0.897948 1.227030 0.914414
0.900648 0.296321 0.917110
0.900722 0.286170 0.917194
0.898248 1.505356 0.915267
0.900663 0.311520 0.916608
0.901163 0.359724 0.916585
0.900895 0.353501 0.916129
0.901108 0.374802 0.916000
0.898028 1.281293 0.912897
0.901614 0.405440 0.915853
0.901332 0.402608 0.915408
0.901164 0.300935 0.915170
0.900208 1.091667 0.913147
0.901693 0.355590 0.914171
0.898792 1.302212 0.911463
0.902687 0.428501 0.912548
0.902899 0.356621 0.911670
0.899920 1.294195 0.908792
0.903368 0.350069 0.911262
0.902703 0.885123 0.909579
0.900630 1.293608 0.906782
0.900630 1.293608 0.906782
0.904281 0.375696 0.909496
0.900374 1.469211 0.906022
0.904025 0.368018 0.908507
0.904842 0.380727 0.909400
0.904297 0.396038 0.908299
0.904297 0.396038 0.908299
0.903838 0.294034 0.907238
0.904534 0.416966 0.907492
0.905020 0.429737 0.907982
0.905142 0.423856 0.907772
0.904736 0.372740 0.907318
0.904736 0.372740 0.907318
0.903086 0.983444 0.904743
0.902720 1.489637 0.902867
0.905704 0.470225 0.905198
0.905706 0.426134 0.905154
0.905824 0.418959 0.905053
0.905758 0.401870 0.904663
0.905976 0.465496 0.904678
0.906127 0.421757 0.903388
0.906192 0.347761 0.903139
0.906553 0.373770 0.902879
0.906648 0.432701 0.902975
0.906654 0.441510 0.902518
0.906773 0.403775 0.902624
0.906666 0.382938 0.902122
0.905132 0.965108 0.900757
0.904283 1.152650 0.899399
0.906922 0.362309 0.902002
0.907779 0.412355 0.901741
0.907378 0.370340 0.901273
0.907593 0.379682 0.900666
0.904957 1.097350 0.898025
0.907908 0.417048 0.900153
0.908228 0.461580 0.899222
0.908179 0.376443 0.899094
0.908334 0.398960 0.899078
0.904954 1.446416 0.895961
0.908542 0.428616 0.898343
0.908420 0.435556 0.897941
0.908723 0.412609 0.898208
0.906315 1.198036 0.895022
0.905202 1.292164 0.894548
0.908873 0.347641 0.897402
0.908855 0.420305 0.897176
0.908721 0.401010 0.896685
0.906983 1.079082 0.894880
0.907120 1.046944 0.894904
0.909078 0.443778 0.896846
0.909334 0.409070 0.896972
0.906006 1.278765 0.893941
0.908269 0.949536 0.895343
0.906348 1.440866 0.893697
0.909575 0.452618 0.895728
0.907405 1.076690 0.893593
0.909736 0.401604 0.895323
0.906494 1.176507 0.892069
0.910273 0.436910 0.895600
0.910179 0.455624 0.894334
0.910254 0.448588 0.894031
0.910731 0.413022 0.894214
0.907584 1.183088 0.891056
0.910533 0.426433 0.893096
0.909561 0.865983 0.891643
0.910597 0.439541 0.892546
0.910735 0.450793 0.892164
0.909200 1.066985 0.890123
0.907820 1.475367 0.889244
0.911393 0.458069 0.891684
0.911326 0.420576 0.891643
0.912226 0.450919 0.890828
0.912226 0.450919 0.890828
0.909103 1.061293 0.887738
0.912044 0.419022 0.888984
0.912180 0.437059 0.889074
0.912180 0.437059 0.889074
0.912469 0.454759 0.889129
0.910768 1.033129 0.886219
0.910009 1.185910 0.884759
0.913507 0.439970 0.886406
0.913507 0.439970 0.886406
0.910572 1.540059 0.884308
0.910854 1.170391 0.883430
0.911111 1.304647 0.882161
0.914715 0.448939 0.884596
0.911477 1.173087 0.881355
0.911477 1.173087 0.881355
0.915075 0.435320 0.883790
0.912631 1.069450 0.879350
0.913037 1.164949 0.878646
0.913737 1.169493 0.876512
0.916823 0.445988 0.878045
0.916823 0.445988 0.878045
0.915375 1.018300 0.876395
0.914827 1.118541 0.874184
0.916138 1.010468 0.872088
0.917077 1.017262 0.872334
0.916068 1.117477 0.870977
0.916777 1.013303 0.871340
0.917449 1.019689 0.870138
0.918266 0.895543 0.870527
0.916975 1.124863 0.868139
0.918260 1.027701 0.868874
0.918952 1.005093 0.866165
0.918187 1.231767 0.864064
0.922060 0.812708 0.862407
0.919610 1.317088 0.859614
0.920554 1.346930 0.858602
0.921304 1.307856 0.856513
0.921670 1.360252 0.855670
0.922442 1.099685 0.855937
0.921992 1.255841 0.854912
0.921632 1.314505 0.854151
0.922605 1.090730 0.854732
0.923219 1.105441 0.854981
0.925261 0.807978 0.855159
0.923717 1.092789 0.852657
0.922904 1.321002 0.852194
0.924800 0.997321 0.852520
0.923462 1.317939 0.850748
0.925156 0.963247 0.851624
0.923790 1.352483 0.850434
0.925131 1.099844 0.849789
0.924238 1.280557 0.849093
0.924335 1.291340 0.848795
0.924884 1.196437 0.847446
0.925042 1.360226 0.847165
0.925612 1.211190 0.846788
0.927484 0.863764 0.847941
0.927417 0.863665 0.847723
0.926065 1.324766 0.845146
0.927697 0.951079 0.845261
0.927317 1.207275 0.843202
0.928750 1.012367 0.841851
0.929318 1.067757 0.839222
0.929684 1.083325 0.838164
0.931429 0.828896 0.838895
0.931429 0.828896 0.838895
0.931785 0.856256 0.837086
0.930390 1.086651 0.835574
0.930991 1.192652 0.833836
0.931497 1.059193 0.834003
0.931497 1.059193 0.834003
0.930782 1.173938 0.833004
0.931802 1.177186 0.831845
0.934410 0.931719 0.829984
0.934342 0.937834 0.829367
0.934308 1.216956 0.824662
0.935972 0.819809 0.825757
0.936395 1.133246 0.820886
0.938021 0.889582 0.821405
0.936686 1.155987 0.819972
0.937500 1.126302 0.818125
0.938729 0.920968 0.818257
0.937575 1.163136 0.817254
0.938241 1.108528 0.816425
0.940041 1.155517 0.811808
0.941724 0.806478 0.813099
0.941853 0.873556 0.810866
0.941581 0.993038 0.810036
0.943720 0.992398 0.805254
0.943720 0.992398 0.805254
0.943983 0.987600 0.804269
0.943904 0.864696 0.803910
0.946914 0.565273 0.805082
0.948016 0.159466 0.805731
0.945487 0.979817 0.801673
0.947002 0.861900 0.798835
0.949467 0.425306 0.796790
0.947058 1.239444 0.793656
0.947947 1.233479 0.792668
1.045813 0.829910 0.873423
0.950083 0.851754 0.791176
0.948662 1.188031 0.789501
0.949414 1.237449 0.788303
0.950442 1.037118 0.787803
0.949748 1.208713 0.787250
0.950745 1.078907 0.786760
0.951266 0.905962 0.787079
0.950895 1.073964 0.786396
0.951139 1.075828 0.786044
0.952305 0.904560 0.784619
0.952737 0.844926 0.784997
0.951252 1.229297 0.783830
0.952935 1.061593 0.780614
0.953967 0.904394 0.780912
0.953103 1.192043 0.780359
0.953660 1.087303 0.780537
0.953226 1.216908 0.779800
0.954350 0.913522 0.779244
0.954704 0.909538 0.778720
0.954530 0.904435 0.778354
0.954759 1.274064 0.776384
0.954759 1.274064 0.776384
0.955247 1.011875 0.776421
0.954936 1.169206 0.775829
0.956240 0.774691 0.776390
0.955061 1.280031 0.775508
0.956063 0.913467 0.775904
0.956279 1.013618 0.774594
0.956695 0.885036 0.774718
0.956679 0.903887 0.774055
0.956680 1.015316 0.772807
0.957380 0.889245 0.772627
0.956829 1.329897 0.771901
0.958902 0.771002 0.771476
0.958567 0.877424 0.769979
0.958463 0.997192 0.768947
0.959780 0.994516 0.764989
0.961083 1.117617 0.760874
0.963999 0.240212 0.760855
0.962080 1.153045 0.758307
0.962397 1.090274 0.758006
0.962259 1.207803 0.757565
0.962259 1.207803 0.757565
0.962945 0.985376 0.757617
0.963060 1.198631 0.755782
0.966436 0.157908 0.756862
0.964527 0.985541 0.753877
0.922044 0.728312 0.720216
0.964597 1.086563 0.752868
0.967055 0.157737 0.752842
0.966053 0.864720 0.751141
0.966131 0.980667 0.749924
0.966131 0.980667 0.749924
0.967479 0.856702 0.747193
0.967201 0.979693 0.746856
0.968016 0.753964 0.747168
0.968648 1.068411 0.742534
0.969742 1.082394 0.740623
0.970501 0.881480 0.739640
0.971381 0.750536 0.739540
0.971094 1.073570 0.737904
0.972777 0.855036 0.734457
0.972547 1.175307 0.734163
0.973110 0.865922 0.732869
0.973401 1.207722 0.732584
0.974735 0.913155 0.729129
0.974843 1.057251 0.728503
0.975145 0.877407 0.728609
0.974986 1.175296 0.728469
0.975967 0.827739 0.726242
0.976424 0.998106 0.724198
0.976547 1.046697 0.723775
0.977222 1.043322 0.723321
0.977786 0.838190 0.721914
0.979317 0.800747 0.720155
0.979317 0.800747 0.720155
0.979428 0.999648 0.717477
0.979782 1.148619 0.716553
0.980674 0.808233 0.716100
0.981315 0.707187 0.715606
0.981451 0.677096 0.715054
0.981101 1.166063 0.713937
0.981395 1.148616 0.713598
0.981874 0.987218 0.712598
0.981564 0.827044 0.712333
0.982514 0.849403 0.711811
0.982044 0.756384 0.711532
0.981983 1.155130 0.711648
0.982726 0.695919 0.710672
0.982726 0.695919 0.710672
0.983141 0.671670 0.710099
0.984220 0.836212 0.709583
0.982950 0.841355 0.708802
0.983303 0.854621 0.708618
0.983303 0.854621 0.708618
0.983550 0.844054 0.708365
0.983187 1.109228 0.707316
0.983817 0.987469 0.706558
0.984529 0.813710 0.705528
0.984676 0.847866 0.705355
0.984861 0.808616 0.704842
0.985648 1.126482 0.703870
0.985818 1.095722 0.702768
0.986057 0.807562 0.701879
0.986303 0.749845 0.701517
0.986256 1.077470 0.701517
0.986326 0.804201 0.701410
0.986394 0.840424 0.700813
0.986743 0.844812 0.700071
0.986947 0.810709 0.700109
0.986818 0.816228 0.699779
0.987084 1.126663 0.699564
0.987901 0.665051 0.699459
0.987188 1.082491 0.698934
0.987747 0.801150 0.698037
0.987722 0.806430 0.697610
0.988242 0.928616 0.695783
0.988788 0.806266 0.695260
0.988983 1.157402 0.695082
0.989368 0.813983 0.694919
0.989341 0.820142 0.694299
0.990048 0.714836 0.693237
0.990007 0.814466 0.692740
0.990141 0.930605 0.692247
0.990805 0.795213 0.691039
0.990397 1.049770 0.690897
0.992800 0.212772 0.690956
0.991474 1.031458 0.689134
0.992253 0.797204 0.687441
0.992644 0.797661 0.686997
0.992618 1.061792 0.685406
0.993280 1.164747 0.685891
0.993222 1.045829 0.685392
0.992891 0.879504 0.684954
0.994567 0.790202 0.681531
0.994727 1.010052 0.681792
0.994720 0.793168 0.680897
0.995320 1.005762 0.679673
0.995956 0.784397 0.679686
0.995564 1.004157 0.679355
0.995282 0.873134 0.678414
0.995899 0.903717 0.678336
0.995664 0.708168 0.677044
0.996546 0.621184 0.676956
0.996887 0.677855 0.676735
0.997375 0.621673 0.675954
0.997375 0.621673 0.675954
0.997251 0.669126 0.675397
0.997251 0.669126 0.675397
0.997179 0.860494 0.674474
0.997983 0.999743 0.673573
0.998511 0.673205 0.672024
0.998783 1.032663 0.672228
0.999433 0.617938 0.672179
0.998784 0.621548 0.671702
0.998272 0.788164 0.670991
0.998799 0.756608 0.670878
0.998923 0.990225 0.670517
0.999699 0.996418 0.670181
0.999903 0.603011 0.669558
1.000642 0.671654 0.667830
1.000557 0.846749 0.667450
1.001553 0.667161 0.666529
1.001296 0.658875 0.665534
1.001383 0.988553 0.664598
1.001637 0.852358 0.664607
1.001637 0.852358 0.664607
1.001804 0.817341 0.664142
1.001711 0.819692 0.664002
1.001957 0.976650 0.663880
1.002655 0.658945 0.662703
1.002998 0.641138 0.662256
1.003197 0.848514 0.661009
1.003256 0.951719 0.660919
1.003997 1.129716 0.661401
1.003377 0.811680 0.660317
1.003383 0.648095 0.660178
1.004124 0.976668 0.659186
1.004124 0.976668 0.659186
1.004158 0.636971 0.658670
1.004459 0.632958 0.658345
1.004560 0.656823 0.657365
1.004806 0.841145 0.657236
1.004836 0.662857 0.657139
1.004977 0.631478 0.657133
1.004841 0.806764 0.656207
